# .PCD v0.7 - Point Cloud Data file format
VERSION 0.7
FIELDS x y z
SIZE 4 4 4
TYPE F F F
COUNT 1 1 1
WIDTH 466
HEIGHT 1
VIEWPOINT 0 0 0 1 0 0 0
POINTS 466
DATA ascii
4.5019073 1.738058 -3.7919619
4.5066257 1.7496539 -3.7817917
4.4859848 1.7570735 -3.6176181
4.4308572 1.9181327 -3.5806696
4.4572139 1.9228021 -3.5882187
4.4672813 1.9264623 -3.5745378
4.4571676 1.9460499 -3.572613
4.5939732 1.4301516 -3.5643511
4.5005927 1.9192284 -3.5023029
4.5269895 1.8398409 -3.4233758
4.5391035 1.8442709 -3.4222856
4.524477 1.8391533 -3.4185741
4.5419087 1.8428261 -3.4199953
4.5462379 1.8277714 -3.3965621
4.6674066 1.6703287 -3.3431659
4.5624971 1.7965423 -3.3277435
4.5579095 1.7917507 -3.309804
4.5533023 1.8586172 -3.2612498
4.54667 1.8516719 -3.2589047
4.5819402 1.7742585 -3.2173243
4.5990596 1.7721301 -3.2173197
5.0546298 0.60623002 -3.2068093
5.0348973 0.59313112 -3.1916776
4.7224388 0.59885895 -3.1896853
4.7143297 0.62337655 -3.1743352
4.5823722 1.9213524 -3.1602416
4.5784121 1.911594 -3.1521842
4.5859094 1.9164807 -3.1523559
4.5783772 1.9201138 -3.1547387
4.5886993 1.918699 -3.148535
4.590302 1.9227672 -3.1479228
4.5722303 1.7028127 -3.0949211
4.7414079 0.78932297 -3.071501
4.8951888 0.57032186 -3.0685711
4.7626667 0.50736856 -3.0532081
4.9953523 1.2109829 -3.031702
4.7162127 0.90796363 -3.0039613
4.7126279 0.96047425 -3.0058467
4.719151 0.9034276 -2.9936652
5.0110178 0.38892713 -2.9832258
5.0089245 0.39619648 -2.9832976
4.6937318 1.1001232 -2.9831955
4.7144256 0.98923594 -2.9549069
4.7854648 0.70597643 -2.91224
4.7786288 0.75001657 -2.8975952
5.0954762 1.0077555 -2.8932974
5.0036516 0.63927758 -2.8827257
4.6683645 1.5415252 -2.8872693
5.0104313 0.63680482 -2.8762105
5.0045791 0.6425848 -2.8735082
5.005012 0.62513506 -2.8612649
5.0542026 1.0086725 -2.8627374
4.7113252 0.7102291 -2.8453822
4.5917201 1.5275173 -2.8311529
4.7597051 1.0319762 -2.8285308
4.7416124 1.0461268 -2.8224719
4.7656193 1.0421731 -2.8249552
4.7357984 1.1485586 -2.8290679
4.7608652 1.0598836 -2.8188016
4.9172153 0.62256986 -2.8098068
4.7411113 0.82163787 -2.7712803
4.607379 1.1947858 -2.7608485
5.1494474 0.47277105 -2.7377012
4.7810221 1.1685344 -2.7339349
4.9975982 1.0883399 -2.7135253
4.7943916 0.52382338 -2.7086446
5.0747433 0.45585898 -2.6865439
5.0432558 0.45097661 -2.6714039
4.7958093 0.64076376 -2.6609974
5.0286498 0.44580835 -2.655899
4.8831773 0.4689092 -2.624064
4.8658199 0.25627059 -2.61589
4.8637333 0.26409343 -2.6148
5.0424824 0.65804082 -2.5955014
4.7907381 0.76429701 -2.5637774
4.897728 0.16643985 -2.5444343
4.7992558 0.86651742 -2.5442486
4.7783661 0.95293725 -2.5458293
4.7662225 0.93817085 -2.5349612
5.1252031 0.22033347 -2.5229595
5.2799091 0.47110158 -2.5232899
4.7705956 0.86097264 -2.5203183
5.0175953 1.1262311 -2.5060883
5.0663619 0.20425881 -2.4915926
5.0032187 0.64269137 -2.4955938
5.1807046 0.42135826 -2.482147
4.8476896 0.613015 -2.4879506
4.8783541 0.45482981 -2.4624636
5.2005973 0.45004481 -2.4654953
5.0590262 0.82283664 -2.4593034
4.8192887 0.87849659 -2.459928
5.0513616 0.87258047 -2.4597433
5.1005335 0.40187439 -2.4415147
5.0884681 0.4057425 -2.4250531
5.1089354 0.43411881 -2.4205613
5.1206446 0.45436582 -2.4229603
5.1443353 0.48646173 -2.4228637
4.8749862 0.55254555 -2.4265287
5.2358088 -0.40106684 -2.3741114
4.860815 0.77084559 -2.3618102
5.1785283 0.70303589 -2.3559444
5.0930462 0.67926979 -2.3418224
5.1315222 0.68279701 -2.3414712
4.804328 1.5344899 -2.3447173
5.057899 1.5511513 -2.3455882
4.8652539 0.73714089 -2.3341649
4.8740902 0.74112725 -2.3340054
4.8299942 1.6351534 -2.3311982
4.819469 1.6325607 -2.3235211
4.8987408 0.56256372 -2.312711
4.9015889 0.56100547 -2.3140981
4.8083467 1.610713 -2.3195672
5.0621605 0.66431934 -2.3093138
4.8917823 0.72140741 -2.28303
5.0519905 0.7881813 -2.2132423
4.9298649 1.17714 -2.2082791
5.061193 1.8785204 -2.2088611
4.8310361 1.1298637 -2.1935189
4.837317 1.1349629 -2.1951187
4.9164014 1.172083 -2.19946
5.2875309 -0.20270598 -2.162936
5.0736303 1.0830301 -2.1618156
5.0855584 1.0880526 -2.156703
5.0870605 1.0965133 -2.1548424
4.9188509 0.74477082 -2.1436989
4.8587346 1.1091217 -2.1405034
4.7442751 1.8753242 -2.145993
4.8648572 1.1169075 -2.1390719
4.7261791 1.8746796 -2.139631
4.7362227 1.9036504 -2.1396317
5.0128598 0.17345566 -2.1277118
5.1420245 0.71842927 -2.1280756
4.8989315 1.2989782 -2.1193595
4.8981299 1.3038834 -2.1199596
4.4982963 1.8798802 -2.114099
5.1842041 0.37149405 -2.0982611
5.2415323 0.1220675 -2.0802727
4.9205022 1.4100932 -2.0880327
5.2326808 0.10459967 -2.0778391
5.2393064 0.1174799 -2.0798626
4.8950977 1.3991156 -2.0797067
5.0989294 0.16014139 -2.0528994
5.4519677 0.38838527 -2.0372665
5.1188493 1.0279208 -1.9989445
4.2510757 1.8047816 -1.9948781
4.2511859 1.8249414 -1.9912515
4.2542882 1.8371909 -1.9963186
5.1246071 1.3815936 -1.9887799
5.1682267 0.3893953 -1.9743937
5.0857754 1.3666751 -1.9700741
5.0973268 1.3789793 -1.9767557
5.1115952 1.3840239 -1.9786023
4.9083366 1.6760198 -1.9635737
4.147831 1.7243117 -1.9573079
5.2249222 0.30962658 -1.9406625
5.2417617 0.30910939 -1.9461128
5.2356243 0.31023556 -1.9484179
5.0786839 1.6121224 -1.9466552
5.0982246 1.6179513 -1.9499625
5.1296673 1.6295736 -1.9443535
5.2294955 0.31797692 -1.9337718
5.2390366 0.31819883 -1.9383502
5.256484 0.32956558 -1.9306942
5.0634093 1.6147572 -1.9283652
5.0883646 1.4799504 -1.9124069
4.974998 0.8454228 -1.9058237
5.0797377 1.7102131 -1.9031589
5.2143717 0.45870274 -1.8905205
3.8773158 1.8146939 -1.8900568
5.2383437 0.33108547 -1.8790604
5.1166415 1.4519184 -1.8754499
5.171504 0.79977369 -1.8508663
5.1825185 0.7972616 -1.851825
4.9407225 0.81855834 -1.8553989
4.9810853 0.85528177 -1.858857
5.3065972 0.13953288 -1.8442699
4.9700627 0.84743071 -1.8490858
4.9424524 0.82264704 -1.8346834
5.1157556 1.4302672 -1.8311517
3.6359 1.7784621 -1.8323737
3.759551 1.7767276 -1.8321164
3.6506059 1.7821501 -1.8309892
4.925355 0.81172699 -1.826946
3.7544456 1.7546146 -1.8232152
3.6583626 1.7637619 -1.8262402
3.6331978 1.7360147 -1.814015
3.7726545 1.5569252 -1.7795794
4.8698153 1.7501495 -1.7445709
5.3515158 -0.4530077 -1.7306644
5.3915176 -0.42069682 -1.7278382
5.3701692 -0.38919273 -1.7108536
5.1890378 0.84823203 -1.7156545
5.2048683 0.90144998 -1.7001002
5.0386891 1.1604722 -1.7083911
4.9877629 1.5479742 -1.6706477
5.3873158 -0.22251937 -1.6490527
5.3455186 -0.057128008 -1.642222
5.1356745 0.2351231 -1.6385338
5.232409 1.1644356 -1.6220934
5.0343175 0.80013269 -1.6196402
5.1908927 1.1226993 -1.6110322
5.1783018 1.2193195 -1.6159917
4.9806714 1.2672719 -1.6177133
5.3370266 0.19346012 -1.6022046
5.5739069 -0.078934185 -1.5927126
5.1908407 1.1396461 -1.5981601
5.2183394 1.1747807 -1.5929585
5.1810765 -0.030380005 -1.5862923
5.0867105 1.1716973 -1.5855113
5.0626292 0.70473236 -1.5767245
5.0425692 0.69539535 -1.5668572
4.7521052 1.697668 -1.5601789
5.3947191 -0.10720543 -1.5505512
5.3980522 0.20465294 -1.5539539
4.987792 1.0132452 -1.5413208
5.3762445 -0.10168581 -1.5369084
5.3853545 -0.10309169 -1.5361116
5.3604474 -0.084633864 -1.5308903
5.1694636 0.19681956 -1.5383527
5.341959 0.19399332 -1.533691
4.6627374 1.7905231 -1.5310566
4.6575756 1.7792808 -1.5228266
4.6545486 1.7695383 -1.5184437
4.6459866 1.7755377 -1.5179204
5.3664408 0.1324787 -1.5011908
5.3530755 0.13578899 -1.4990318
5.3662257 0.14661226 -1.4961326
5.3696189 0.15771821 -1.486823
5.3486037 0.1610973 -1.4841557
5.2473254 0.99018657 -1.4789256
5.0347323 1.0045347 -1.4757044
5.5053892 -0.30665445 -1.452686
5.1151094 0.72219312 -1.4439847
5.3638983 0.18141203 -1.4246083
5.3566122 0.26718932 -1.4258157
5.3653126 0.26948693 -1.4244915
5.4426823 0.077504084 -1.3559607
5.360899 0.95529681 -1.3530772
5.3913674 0.066352971 -1.3435599
5.3942747 0.074365407 -1.3424581
5.4037328 0.075655319 -1.3430811
5.5032463 -0.76101464 -1.3295368
5.5159726 -0.76040184 -1.3265346
5.5253787 -0.66155154 -1.2757852
5.0955396 1.5737056 -1.2687167
5.4810877 -0.42887378 -1.2500337
5.1052032 1.5779648 -1.2502832
5.4641085 -0.43233645 -1.2479613
5.3315115 0.73684222 -1.2487761
5.3624873 0.54592264 -1.2218354
5.0774837 1.268231 -1.229834
5.0332541 1.5184259 -1.2231266
5.0566192 1.5359713 -1.2136656
5.1655116 0.79275799 -1.1998734
5.349751 1.0792897 -1.1937115
5.1681504 0.92053097 -1.1703908
5.3339496 0.93252826 -1.1715301
3.0533233 1.3494437 -1.1768193
5.7808223 -0.052967772 -1.1690137
5.3809319 0.94716537 -1.1618593
5.7023978 -0.35185978 -1.1453694
5.4819431 -0.30723038 -1.1401495
5.263834 1.1694027 -1.1450731
5.2579284 0.32500753 -1.137177
5.3075342 -0.094001837 -1.128956
5.324635 -0.087955728 -1.1244705
5.2386179 0.33483273 -1.124416
5.2414184 0.33001658 -1.1252317
5.5841146 -0.34760821 -1.1121317
5.2079773 0.7013303 -1.1140538
5.1600051 1.067317 -1.1083426
3.6210883 1.6280007 -1.1017889
5.2898769 -0.0096144695 -1.0938264
3.2576399 1.4779968 -1.099373
3.6591845 1.6501161 -1.0937493
5.2581367 0.43759963 -1.0830302
5.2692842 1.3080775 -1.0808805
5.5057058 -0.13548546 -1.0783989
5.2469101 0.43075514 -1.0771965
5.2563486 0.43059579 -1.0783789
5.4938312 1.0310173 -1.0766839
5.3885689 1.3385496 -1.0708649
5.58675 -0.78526902 -1.0647799
3.3116829 1.4552621 -1.0613868
5.4814382 -0.11011461 -1.0593379
5.4097967 -0.12373192 -1.031335
5.289094 0.16396083 -1.0158331
5.3008704 0.16488212 -1.0060555
5.30405 0.17779122 -1.0066222
5.3876462 0.26337874 -0.98695964
5.2317824 0.86968935 -0.96744823
3.3502944 1.5610282 -0.93917471
5.3753939 0.03507407 -0.88040751
5.2370934 0.90983272 -0.88668948
5.4125042 1.2025036 -0.88868636
5.2603402 0.57391989 -0.85829258
5.3513179 0.60650188 -0.84779471
3.5317636 1.5238725 -0.83697432
5.4210882 -0.26886439 -0.82880098
5.2495556 0.93684703 -0.81248271
5.2738261 0.82123327 -0.79967147
5.3820891 1.0113535 -0.79585481
5.3244228 0.097868457 -0.77801013
5.5475106 0.54774511 -0.77358067
5.3020272 0.72969639 -0.77876943
3.3765392 1.2464073 -0.7766313
5.2755785 0.93268311 -0.76648855
5.562223 0.54742366 -0.74442405
5.436285 0.69753492 -0.74094653
5.4157767 0.88679957 -0.73447973
3.9959197 1.2812251 -0.66068351
5.6539807 -0.37850851 -0.62352985
5.3355975 0.66295564 -0.61087751
5.5513349 -0.26233035 -0.60048765
5.3728318 1.1244799 -0.59949315
5.3225589 0.35493848 -0.58851862
5.3873162 0.37254131 -0.58253378
5.5314026 1.1146843 -0.57595682
5.6086159 1.1278867 -0.56171751
3.2481508 1.2464895 -0.56470174
3.0015073 1.2535757 -0.56784213
3.2857006 1.2557536 -0.55362159
4.3043518 1.3505089 -0.54158545
5.5322003 0.34353134 -0.53420806
4.3167105 1.3501698 -0.53869891
5.5227823 0.34415263 -0.52964604
4.3240705 1.2679738 -0.52177048
4.2736816 1.2603542 -0.51091301
3.9991739 1.3327583 -0.51523894
4.2875071 1.2583669 -0.50351202
5.4778495 0.85224956 -0.49265289
5.4384871 0.029649192 -0.48852056
5.6404095 -0.45851272 -0.47545344
3.268522 1.1928219 -0.41851547
5.572659 0.213101 -0.38677412
5.5777555 0.22219241 -0.38046414
5.5839629 0.25315517 -0.38177592
5.3899903 0.87898183 -0.38764486
5.5777874 0.27912992 -0.37810722
5.5863843 0.2873992 -0.3798185
5.4968224 0.067803361 -0.36120579
5.7164288 0.26551792 -0.35579705
5.5047812 -0.064066187 -0.34838665
5.4449658 0.25524515 -0.3376618
5.5050192 -0.037645362 -0.32571167
5.5285082 0.50156283 -0.28630975
5.6353731 -0.084997229 -0.255694
5.6470995 -0.069478333 -0.25772774
3.5780959 1.1384556 -0.25510356
5.6254187 -0.10964689 -0.24615991
5.6521463 -0.094261035 -0.24444969
5.5334368 0.46130031 -0.24047333
5.5907412 0.47078508 -0.23970948
5.4646811 0.94891644 -0.23745693
5.4860606 0.96054709 -0.23693772
5.5018516 0.96473461 -0.22901765
5.72651 0.66224813 -0.20997962
5.4338078 0.51471394 -0.19565515
5.5114264 0.91505414 -0.19434546
5.5568676 0.92638767 -0.19721016
5.4916945 0.93047738 -0.18297021
4.3113637 1.1959215 -0.18669778
4.3225245 1.1984789 -0.1776676
5.5639963 0.070838094 -0.16280845
5.2900553 0.96260363 -0.15858805
3.3583198 1.1927421 -0.14888418
4.4689641 1.1715527 -0.11722522
5.4640665 0.90137029 -0.10052944
5.5888076 -0.16871727 -0.093507573
5.7050076 -0.13754331 -0.09637472
5.3915472 0.90749937 -0.082727849
4.9421835 1.1566423 -0.070942178
4.9405613 1.1634454 -0.073040158
5.6811409 -0.19789056 -0.060905542
4.8803349 1.3888698 -0.063003063
3.2835598 1.0433215 -0.054380264
5.0512514 1.1603853 -0.052577361
5.708735 -0.19449097 -0.033119611
5.6102924 0.85211474 -0.031642955
5.5583858 0.28654563 -0.020318393
5.5668459 0.28258437 -0.023593379
5.5571294 0.4134635 -0.023631128
5.5555649 0.28424132 -0.019999994
5.5691485 0.28518236 -0.016108008
4.6452389 1.141507 -0.018376028
5.636692 0.26259097 0.027896794
5.6542945 0.26620761 0.028012076
4.7972903 1.1144285 0.028673135
5.6189933 0.42229861 0.033667549
5.6782794 0.25955632 0.041110042
5.0779047 1.2056911 0.047594972
5.6165829 0.1120887 0.068186723
3.492059 1.1296074 0.073365465
5.569912 1.078501 0.13264641
5.5864034 1.084097 0.13041407
5.5777721 0.58875984 0.1497089
4.8472714 1.072083 0.15306993
4.5638814 1.0476931 0.17709659
4.4261608 0.97772413 0.1913871
5.6242409 0.30734259 0.20469315
5.6314635 0.31135219 0.20864028
5.5948234 0.33274698 0.20340674
4.162631 0.95080698 0.22161824
4.6648703 1.1074029 0.22564171
5.6211219 0.96795821 0.23198293
4.4063892 0.94117528 0.24131528
5.6668363 0.15259214 0.25876525
5.6503549 0.17067865 0.25549489
3.5655749 1.0063003 0.30331588
3.562546 1.0152243 0.30214313
5.6388903 0.46617576 0.32681379
3.6194351 0.82740057 0.32156906
5.6461515 0.46794987 0.33157721
3.9396198 0.88737333 0.3748081
5.5919604 0.44517785 0.39898041
5.7509809 -0.098462783 0.42546526
5.4509411 0.88326895 0.44112086
3.5336912 0.95361727 0.47845131
4.0013547 0.84440184 0.48383933
4.6428475 0.91933715 0.48123369
3.9087088 0.99281681 0.48812824
4.6647339 0.9118371 0.49940598
4.2105818 0.95988059 0.4951039
4.6582041 0.91191643 0.50049365
4.1580448 0.93454242 0.50818527
5.6988187 0.82071167 0.522816
5.6650391 0.36225411 0.53477472
4.4307237 0.98294967 0.55975527
3.9699104 0.8974551 0.57631087
3.9025407 1.0742061 0.58030659
4.7465553 0.95790291 0.60034323
3.9187844 0.77698594 0.62826318
3.782908 0.77774954 0.63198626
3.9409881 0.90157515 0.65544558
3.8532519 0.8821311 0.66608685
3.7477424 0.86493844 0.69344205
3.5827813 0.17535408 0.7597208
3.5963931 0.16042317 0.78514898
3.6058302 0.18992472 0.79745632
5.4344554 0.71393186 0.80458808
3.5939205 0.29755333 0.81354481
3.4221888 0.36118841 0.81578875
3.6062975 0.31759927 0.82661283
3.6395915 0.15171117 0.83829015
3.7439919 0.28502965 0.8740496
5.6745648 0.40498176 0.87645066
5.6872959 0.40906492 0.88723654
5.5050983 0.76421982 0.89312756
3.7447066 0.37476751 0.93413371
3.7966886 0.39697775 0.93059164
3.5108399 0.57659012 0.97813398
3.5157435 0.5801996 0.97766292
3.5239112 0.5937981 0.97401059
3.6861975 0.71110409 0.97222227
5.8907871 0.44144875 0.99674106
3.9439194 0.3915112 1.0025494
5.4390798 0.64295638 1.0068604
3.6077478 0.58223081 1.0104159
5.8122883 0.61720306 1.0397985
3.5690219 0.68173903 1.0382097
4.0890489 0.38515189 1.0439384
5.3991003 0.53809196 1.0436246
5.788372 0.5620504 1.0494776
5.8063712 0.63787431 1.0465977
5.8064733 0.57038897 1.2134479
3.6404095 0.72577864 1.2235354
