# .PCD v0.7 - Point Cloud Data file format
VERSION 0.7
FIELDS x y z
SIZE 4 4 4
TYPE F F F
COUNT 1 1 1
WIDTH 197
HEIGHT 1
VIEWPOINT 0 0 0 1 0 0 0
POINTS 197
DATA ascii
5.3419824 -1.0756888 0.67043221
4.838841 -1.4480462 0.68416411
5.3584037 -1.0836691 0.68496603
4.8487973 -1.4576339 0.69931239
4.8529067 -1.4635119 0.71369052
5.3575964 -1.0902914 0.71022695
5.3308887 -1.0860692 0.71880758
5.3658104 -1.0889063 0.720406
5.2695684 -1.068175 0.73203248
5.349925 -0.95514548 0.74723399
5.3500371 -0.95049489 0.74628121
4.8001156 -1.1195881 0.75846195
5.3844643 -0.97611105 0.76594734
5.3638229 -0.95710486 0.7657578
4.7265925 -1.1141751 0.77864659
4.793262 -1.1328316 0.78624153
4.7793703 -1.1203253 0.79673409
4.8016543 -1.181913 0.80235475
4.8023138 -1.1518553 0.80430377
4.8167009 -1.1455436 0.80140388
4.8049016 -1.1748736 0.81317908
4.8034716 -1.1483562 0.81187707
4.814229 -1.1486046 0.81375986
4.8101797 -1.1711911 0.82622612
4.8232613 -1.154681 0.83191961
4.8482447 -1.1495036 0.83266234
5.3622713 -0.86881709 0.83206916
5.288702 -0.63577235 0.83837217
4.8602223 -1.1655539 0.84947175
5.3656235 -0.77489203 0.84267753
5.3734307 -0.76483941 0.84842348
4.8512015 -1.0776937 0.8554225
4.8375068 -1.0358417 0.85332108
4.8379893 -1.2156709 0.869901
4.8315711 -1.2166058 0.87766171
4.8556147 -1.1009449 0.87331998
4.8607345 -1.099876 0.87483978
4.8443122 -0.90502566 0.88088822
4.8028193 -1.0856671 0.89746684
4.8672719 -1.1821219 0.9018451
4.8588619 -0.91128647 0.91775715
4.8480005 -0.92765915 0.9206816
4.8552766 -0.92757821 0.9309805
4.8440824 -0.90813744 0.94464451
4.8485689 -0.8851403 0.94203389
4.8639045 -0.9244594 0.95899892
4.8493004 -0.90298891 0.95311111
5.3639731 -0.70648688 0.95287693
4.7958298 -0.91791338 0.96329725
4.8923898 -0.90543371 0.96531141
4.9141226 -0.92877758 0.97201157
4.8211937 -0.92894173 0.98886424
4.9218497 -0.9248336 0.98059171
4.0984168 -1.5282142 0.99709058
4.8131738 -0.92950189 0.99050587
4.6461768 -0.71031255 1.0011996
4.8831964 -0.62881666 1.0082182
4.8877106 -0.62998247 1.0175502
4.7873921 -0.61311322 1.0156583
4.9332261 -1.1305482 1.0254471
5.4240274 -0.96313828 1.0225939
4.9598751 -0.69878656 1.0206773
4.7916427 -0.71120805 1.0496253
4.9023342 -0.63389403 1.0437917
4.9145331 -1.283936 1.0501618
4.8389759 -0.65180844 1.0500534
4.0984421 -1.5510536 1.0673298
3.3050601 -1.4720458 1.0609401
3.7984662 -1.3775421 1.0696704
5.3714728 -1.2202903 1.0794348
4.9101176 -0.97510564 1.0732684
4.8288808 -0.77064466 1.0736549
4.8245201 -0.66488647 1.0769219
4.8009176 -0.31811583 1.0729882
4.1089783 -1.5723523 1.0878155
4.8542461 -0.67407542 1.0877417
4.1124072 -1.578126 1.0927651
4.8369217 -0.6816234 1.1177713
4.783967 -0.4064526 1.1190547
4.7967896 -0.32837108 1.1177526
4.163372 -1.728744 1.1287174
5.4274144 -1.2415851 1.1280689
4.9316773 -0.67186642 1.1249607
4.0435228 -1.0163634 1.139394
5.084743 -0.67726845 1.1346331
4.8336587 -0.56497627 1.1383415
4.8248038 -0.32923356 1.1493191
3.8018923 -1.4283278 1.1595128
4.823761 -0.33041081 1.1505966
4.1140804 -1.5186818 1.1693192
3.7980418 -1.4322236 1.1670208
5.4961057 -1.2532332 1.1641786
4.8040991 -0.40351483 1.1656132
3.8106458 -1.4386824 1.1821934
5.4775305 -1.2728319 1.1866688
4.8394012 -0.33717933 1.1860846
4.1233778 -1.6270521 1.1987367
4.0829043 -1.2781792 1.1973449
4.7393188 -0.61841738 1.212756
3.4888113 -1.5161728 1.2259263
4.1112952 -1.3766341 1.2223599
5.3767905 -0.83319342 1.2293594
3.2799382 -1.5676986 1.2369827
3.5021012 -1.5224887 1.2322235
3.2954943 -1.5621133 1.244586
3.3181057 -1.5863749 1.2582777
3.2919021 -1.5661463 1.2586623
3.269572 -1.5555384 1.2517252
4.7930751 -0.075249307 1.2504166
4.1254945 -1.2188153 1.2611755
3.2932065 -1.58961 1.2766147
3.7623446 -1.4769762 1.2754205
4.8817558 -0.65233856 1.2701226
3.2927561 -1.548442 1.3005836
4.0455699 -1.0058851 1.3021691
3.2882016 -1.561825 1.3102361
4.0972843 -1.3054993 1.3211536
4.7944145 -0.58839506 1.3342324
4.8959622 -0.57767713 1.3332396
4.0953274 -1.068996 1.341123
4.0701199 -1.0038178 1.3460119
5.0033135 -0.80387753 1.3452795
4.1315246 -1.2610924 1.3529923
4.0767007 -1.0439488 1.3595262
4.6803317 0.21570529 1.3513485
4.0998435 -1.0799558 1.3714315
4.8073244 0.2353327 1.3772814
4.0665588 -0.95040369 1.3830793
4.0823116 -1.0526816 1.3903191
4.7373657 0.22018076 1.3930109
4.8213201 -0.21954361 1.4172858
4.5210366 0.27913338 1.4129059
4.2504044 -0.95462471 1.4348825
4.0414333 -0.83041883 1.4323436
4.7603192 0.26022571 1.4477839
4.7781401 0.25810483 1.4513584
4.7732348 0.26136789 1.4537885
4.0569038 -0.80532151 1.4671274
4.7863331 -0.36953649 1.4690995
4.1470237 -0.23980725 1.4604292
4.7738838 0.45625886 1.4707975
4.8161411 -0.13609718 1.4812348
4.7943149 -0.32643455 1.4931771
4.8052292 -0.32361734 1.4987257
4.8094497 -0.32145742 1.5076046
4.5621309 -0.24557509 1.5006664
4.0610003 -0.73127764 1.5189633
4.0627842 -0.72993219 1.5151032
4.7375526 -0.31610698 1.5295787
4.6563635 -0.3531495 1.5314201
4.6894994 -0.34991851 1.5386217
4.6521869 -0.36243552 1.5401802
4.0834866 -0.90022391 1.5560352
4.7115846 -0.24637479 1.5596147
4.6713781 -0.32411322 1.5615466
4.2224422 -0.24638462 1.562355
3.7807953 -1.6120214 1.5788237
4.7045698 -0.36839697 1.578238
4.0364866 -0.42253938 1.5917246
4.2737598 -0.38329646 1.5990863
4.5504251 0.31595975 1.5996222
4.5023942 -0.3388325 1.6085144
4.0823245 -0.81906807 1.6238277
4.4545174 -0.33932292 1.6260754
4.5387402 -0.21934123 1.6454691
4.7407827 0.31444252 1.6415098
4.1708136 -0.43381041 1.6595345
4.4581285 -0.33209103 1.6543635
3.8565202 -0.31250516 1.6537089
3.8516669 -0.3173703 1.6715872
3.8629529 -0.31925398 1.670976
4.074584 -0.31570467 1.6754692
3.8934321 -0.25932258 1.6854976
3.9376085 -0.2540192 1.6836729
4.5250278 0.31768262 1.6963278
3.8467667 -0.27128893 1.7037929
3.9408851 -0.27887154 1.7069733
3.8430364 -0.26944762 1.7034359
3.8509381 -0.36296681 1.7228453
3.9111621 -0.49526104 1.7373567
3.8584027 -0.37585765 1.7385029
3.8457925 -0.4962348 1.7512146
4.1464796 -0.49540648 1.7673044
4.1583309 -0.50477684 1.7784921
4.7573071 -0.32423115 1.799485
3.8747795 -0.52242273 1.8076012
3.9190047 -0.49799439 1.8139653
4.8488879 -0.33645198 1.8546051
3.9647551 -0.47559154 1.8620317
3.8842044 -0.5130325 1.8789326
3.9557128 -0.47005835 1.8721704
4.7947941 -0.25166333 1.9089297
4.5051427 0.34072232 1.9090017
4.1583543 -0.50360835 1.9661114
3.8790445 -0.5233708 2.0235445
3.9638913 -0.48004821 2.0414064
4.0381489 -0.50354278 2.1252592
