# .PCD v0.7 - Point Cloud Data file format
VERSION 0.7
FIELDS x y z
SIZE 4 4 4
TYPE F F F
COUNT 1 1 1
WIDTH 386
HEIGHT 1
VIEWPOINT 0 0 0 1 0 0 0
POINTS 386
DATA ascii
1.0027755 0.9873327 -1.5494281
0.93402928 1.0295744 -1.5484132
0.90630132 1.1269113 -1.523526
0.95513004 1.1273148 -1.5249368
0.95577532 0.81213331 -1.4636323
0.96203637 0.81179684 -1.4564705
0.97780192 0.94231474 -1.3802103
0.97590846 0.93913591 -1.3764583
0.98487902 0.9336229 -1.3767346
0.9713794 0.94124454 -1.3778977
0.99300206 1.0455892 -1.334047
0.97246993 1.0508072 -1.3287959
0.96773583 0.75992668 -1.3048555
1.0245854 1.2555375 -1.2410197
0.93077505 0.82203716 -1.2347962
0.91386449 0.75147647 -1.1322421
0.928303 0.78060263 -1.1053045
0.84305614 0.6743933 -0.92660594
0.9662177 1.0180913 -0.92352313
0.88126624 0.64384007 -0.83905494
0.99631733 1.2868115 -0.82456374
0.9682709 1.2324357 -0.79435462
0.82616997 0.54959941 -0.78520828
0.85029894 0.67056143 -0.78934991
0.80949062 0.54638356 -0.76325917
0.8063153 0.54273587 -0.75430489
0.85570335 0.73714727 -0.75878471
0.84377432 0.68936038 -0.73287237
0.98542285 1.2326025 -0.71813482
0.86064345 0.6398378 -0.69740713
0.82801062 0.63386822 -0.67214626
0.87331825 0.89601117 -0.65679544
0.88717347 0.89382672 -0.652417
0.89371163 0.89458692 -0.65923637
0.85511196 0.72857088 -0.64654422
0.85314536 0.73250258 -0.64518231
0.87557793 0.88811296 -0.6451472
0.90670949 0.99942893 -0.6129393
0.86968631 0.81485277 -0.60752136
0.92838031 1.0983049 -0.5745852
0.92152154 1.0941393 -0.56151897
0.91735435 1.104073 -0.56264621
1.0001155 0.3654767 -0.51818013
0.82916421 0.5860157 -0.49946344
0.95803666 0.34987071 -0.47172609
0.93793106 0.29374608 -0.46994925
0.85321641 0.46479064 -0.40050453
0.95775723 0.28415102 -0.39059916
0.91621697 0.2637966 -0.38646752
0.9155336 0.26630038 -0.37551028
1.0603406 0.28126079 -0.37243852
0.90893537 0.27289224 -0.36869299
0.83099383 0.61213154 -0.36267921
0.86612022 0.69682795 -0.36011887
0.89210021 0.26774973 -0.35238773
0.8882004 0.27093494 -0.3520591
0.9084506 0.27427554 -0.35749614
0.81883496 0.61093777 -0.35740492
0.97430491 0.26233503 -0.32430774
0.94920343 0.74821049 -0.31650427
0.94349533 0.75180393 -0.31425104
0.92450148 0.75532836 -0.30105904
0.93376875 0.75357795 -0.30562973
0.8265059 0.84594613 -0.30422559
0.92298692 0.75433534 -0.29700205
1.0767031 0.25515768 -0.28204793
1.1146721 0.73648518 -0.27603713
0.82855821 0.91333544 -0.27183819
1.3027954 0.72086769 -0.25187132
1.1132501 0.70887256 -0.23909912
1.2663734 0.71998173 -0.2316865
2.0312276 0.62210834 -0.22520067
1.1041034 0.92311394 -0.21310486
1.110201 0.92397916 -0.2133117
1.2660877 0.90323633 -0.18273513
1.9754556 0.64516854 -0.17460857
1.9420882 0.67106313 -0.1489453
1.4165057 0.91393632 -0.13497046
1.3481038 0.98819011 -0.12024824
1.0750996 0.9343245 -0.11620261
1.3489838 0.9912504 -0.11787298
1.3524822 0.99345452 -0.11707935
1.655539 0.6203801 -0.10471077
1.6826466 0.70418561 -0.10886835
1.6627835 0.86184907 -0.10738522
1.6568247 0.857355 -0.09917403
1.3298417 0.98524469 -0.099747226
1.1822443 0.61666393 -0.072280489
1.4813081 0.64047974 -0.079984836
0.82997179 0.87082589 -0.070969559
1.6680146 0.91254741 -0.079335175
1.8947394 0.86549777 -0.051031873
1.0796623 0.64185655 0.033963758
0.95886058 0.71509326 0.045524161
1.9240087 0.55656254 0.078767955
1.9358264 0.55337578 0.071873851
1.5896442 0.61356759 0.086098365
1.6831532 0.67420864 0.088811144
1.6374382 0.60610318 0.11159029
1.928187 0.77406323 0.12729464
1.5656589 0.65995508 0.13641125
1.9147638 0.7707566 0.13363977
1.8764431 0.66417104 0.1699966
1.8328899 0.62402517 0.1733381
1.9046082 1.0844092 0.23541343
1.8610966 0.83666128 0.24735573
1.8666296 0.85055822 0.24921422
1.8719169 0.85398036 0.24919599
1.8600885 0.84685189 0.2515766
2.049722 0.92082781 0.37755173
2.5665991 0.89329499 0.48337758
2.4195881 0.86272824 0.56823945
1.666932 0.8342663 0.57624066
2.8754067 0.8460415 0.58930582
1.8516902 0.901389 0.58884448
2.4246719 0.83199012 0.6056152
2.3580475 0.86233008 0.61259997
2.4570711 0.82478154 0.62576729
2.9709661 0.5711897 0.63947415
2.0448501 0.81446111 0.64107621
2.082969 0.82604373 0.64316982
2.6571505 0.84955621 0.6910336
2.4940145 0.79035014 0.71489239
1.9481822 0.78344917 0.72110295
2.9278543 0.77389288 0.75549102
2.9651389 0.79096347 0.81154907
2.506911 0.81735021 0.83998662
2.2223485 0.61496097 0.86048806
2.994699 0.74349678 0.86267447
2.9940546 0.79340386 0.86655909
2.9874289 0.56332195 0.87568867
2.9101036 0.72950935 0.90282679
1.97347 0.7215637 0.94430131
2.428268 0.69945675 0.9567619
2.7226865 0.69855595 0.95118135
2.6317041 0.6853475 0.96392089
2.7767789 0.73576212 0.96336442
2.1344063 0.50738645 0.97783971
2.6418743 0.6864143 0.97655642
1.6066092 0.52813029 0.98564053
1.4928159 0.37028751 0.99946576
2.2439296 0.84440506 0.99290639
2.2458375 0.66340327 1.0207391
2.1699393 0.64356101 1.0636811
2.6443753 0.66693008 1.0799981
2.1196072 0.48713285 1.1053958
1.7551306 0.6068697 1.1081853
1.2149278 0.47538984 1.1295993
1.6655115 0.63340759 1.1286197
3.0324817 0.60847378 1.1589835
3.0225708 0.60602868 1.1635216
3.0307701 0.60390949 1.1680906
2.0022273 0.56820869 1.2166138
2.8365221 0.64195073 1.2177411
2.7331285 -0.0069978251 1.2424839
1.2960954 0.537512 1.2546101
2.6783431 0.41245809 1.2698915
2.6792274 0.42741105 1.2863464
2.2044048 0.57057059 1.2812874
2.9188864 0.65224409 1.2865632
1.5384254 0.42619267 1.3094015
2.6803622 0.44905159 1.3029753
2.6790333 0.45696253 1.3091749
1.7626208 0.52610379 1.3005352
2.6764152 0.46342289 1.3146571
1.9613415 0.54195845 1.3150251
1.9827167 0.56256735 1.3120533
2.5368302 0.53170335 1.3267169
2.5297706 0.53015971 1.3315195
1.1208464 0.38579327 1.342801
1.145427 0.50342572 1.3594031
2.6673436 0.52387917 1.3532932
2.5968952 0.35523683 1.3673972
2.6600351 0.52256066 1.362332
2.6560824 0.53015172 1.3636844
2.5905764 0.037532281 1.3777877
2.390521 0.50475192 1.3736826
2.6216381 0.41645944 1.3863316
1.1425438 0.4986732 1.3897806
1.5619816 0.49875924 1.3883902
1.628877 0.5003649 1.3890704
2.4263299 0.49468386 1.3996617
2.4031792 0.49373078 1.403826
2.4164696 0.50058359 1.4049906
0.88758212 0.67218709 1.4088454
2.4255238 0.49692178 1.4174
1.6315911 0.4881663 1.4272996
1.4286914 0.36496073 1.4390457
2.4254022 0.49476889 1.4307326
1.7242831 0.54080385 1.4497919
1.8447152 0.48869267 1.4547827
2.5557258 -1.3361684 1.49964
1.8053114 0.47620517 1.4969006
2.7626019 -1.6810149 1.5384221
2.7648036 -1.6742202 1.5513154
2.8107631 -1.6282097 1.5515795
2.7739828 -1.6768007 1.5623493
2.8006263 -1.6383598 1.5693262
2.7597444 -1.5899767 1.5689486
2.8242466 -1.6437818 1.5886723
2.7425165 -1.7022847 1.5989814
2.8650987 -1.6379141 1.6010714
1.6840123 0.57041794 1.6084709
2.9042118 -1.6609579 1.6149377
2.6014347 -1.4727674 1.6169993
1.7512929 -1.364345 1.6277812
1.0665888 0.26230943 1.6222496
2.8553746 -1.7118251 1.6334834
2.7408512 -1.709996 1.6404679
2.7016213 -1.3242159 1.6457279
1.5158269 -0.027968787 1.6489401
2.7193165 -1.4040195 1.6520879
2.6593416 -1.1845841 1.6590294
2.7401023 -1.7357384 1.6742433
2.670444 -1.3741738 1.6778347
2.7414298 -1.3559692 1.6769024
2.6872127 -1.3822069 1.6876242
2.7354395 -1.3270835 1.6845995
2.6726599 -1.2458621 1.6800421
1.7891809 -1.7602909 1.6963023
2.7368536 -1.3369151 1.697551
2.7325525 -1.3448831 1.7065221
2.7100313 -1.2321568 1.7055359
1.9142036 -1.7675052 1.7118508
2.7348115 -1.3443263 1.7144022
2.4162872 -0.25401565 1.7112733
1.1069624 0.19199088 1.718632
1.8928263 -1.7577127 1.7208514
1.8869228 -1.7355928 1.7210081
2.7123106 -1.2693671 1.7200823
1.4907359 0.39014724 1.7289006
1.8721794 -1.7502702 1.7349397
1.8848962 -1.7760692 1.7495242
1.8799903 -1.7147185 1.7461772
1.3116695 -0.28279188 1.7464044
1.8643502 -1.7886821 1.7505144
1.8617018 -1.7476251 1.7604494
1.9382167 -1.6263783 1.773013
1.841573 -1.5616432 1.7986388
2.7459829 -0.99949294 1.7955894
0.86604816 0.32584083 1.8075759
1.8506991 -1.5214802 1.8173159
2.4451931 -0.46437773 1.8139839
1.5751779 0.42822322 1.8154795
1.937766 -1.8182991 1.8228986
1.8394923 -1.5375794 1.824213
1.8643024 -1.4851085 1.827365
0.79102707 0.31503814 1.8250929
1.8575028 -1.5344979 1.8302925
1.8656365 -1.4959326 1.8391998
1.8649762 -1.4868819 1.8393891
1.8686179 -1.4708539 1.8383689
1.8463334 -1.3438817 1.8363649
1.5193005 -0.29591653 1.8322116
0.4651998 0.32382199 1.830381
1.8479762 -1.4569225 1.8442681
1.8813912 -1.471712 1.8579721
1.8654326 -1.4659221 1.867276
1.917196 -1.3697112 1.8662611
2.0997779 -1.2822542 1.8777448
2.2592738 -1.2381685 1.8760635
0.83627224 0.31755909 1.870087
1.9410096 -1.3982675 1.8809959
1.9171581 -1.3819513 1.883898
2.6275294 -0.57273585 1.8863475
0.46713555 -0.27734646 1.8827194
1.684341 -0.31056431 1.899968
1.7523516 0.28726956 1.8989478
1.900771 -1.7239361 1.9007264
1.9169738 -1.3214322 1.9165534
1.9182287 -1.3155147 1.9151704
1.9215968 -1.311193 1.9113959
2.6592915 -0.69692957 1.918228
1.9291968 0.28378808 1.9179122
1.9238944 -1.3216118 1.9253749
1.9128945 -1.2782511 1.9216756
2.3806944 -0.91701323 1.9265187
1.9424837 0.29180881 1.9219743
2.8646808 -1.4851027 1.9386926
1.9436474 -1.4163557 1.9373665
1.9092536 -1.2409649 1.9371043
2.4331007 -0.85641092 1.9397806
2.6885462 -0.67408895 1.9314231
2.711921 -0.66583478 1.9326017
0.19147874 0.28714859 1.9363619
2.6664298 -0.59082794 1.9461428
1.9185836 -1.1875753 1.9507165
2.6712451 -0.60324818 1.9514582
2.1491385 -1.1113979 1.96209
2.6525884 -0.50039279 1.968942
2.602978 -0.42655489 1.969936
1.879651 -1.1141106 1.9759614
0.73581994 0.076055326 1.9795455
1.908864 -1.1191639 1.9965128
0.6296472 -0.82233703 1.9953725
1.8295398 -1.6078621 2.0047081
1.9127092 -1.0768948 2.0058217
2.4419045 -0.86423409 2.0040984
1.5084288 0.064075626 2.0007064
0.075077854 0.23909724 2.0058029
1.0610675 0.30811626 2.0024052
2.1361613 -1.1884919 2.0195463
1.7009671 -0.053324614 2.0183961
0.8460722 -0.94924134 2.0391726
1.0081749 -1.1375726 2.0464895
0.88468486 -0.37859246 2.0437884
1.7330965 -0.15841466 2.0445645
0.057014581 0.23999214 2.0499983
0.060087863 0.23545079 2.0445859
1.2782357 0.29650721 2.0551808
1.3346815 -0.069678776 2.0691268
1.9631013 -0.9313572 2.0807209
1.9417355 -0.92175311 2.0812092
1.9416752 -0.91624081 2.0870469
1.4783704 -0.84365129 2.0843363
1.7346433 -0.18950751 2.0800264
1.5018429 -0.84850603 2.0908043
1.7446148 -0.67607456 2.0930316
1.9114416 -0.91198176 2.1020973
0.96761358 -1.1541171 2.1142519
1.8951272 -0.76918 2.1292007
2.0978048 -0.90198606 2.1339004
1.9098829 -0.65554905 2.1346915
1.5863646 -0.95203996 2.1438298
0.89606774 -0.3191914 2.1416237
1.4342464 0.21390076 2.1454582
0.8800872 -0.63458824 2.1576488
0.49397573 -0.32849875 2.1557522
1.1982001 0.18362239 2.1580493
1.8116282 -0.1865959 2.1652801
1.6865733 -0.13535203 2.1630239
0.90821028 -0.36163336 2.1764588
0.89294231 -0.72596288 2.1827598
0.86189061 -0.23345901 2.1813598
1.7861882 -0.10703582 2.1869478
-0.066361859 0.16999856 2.1876221
1.922087 -0.67057514 2.1965237
0.91321075 -0.32649979 2.1913099
0.87860185 -0.36455044 2.2028558
1.561347 -0.21383551 2.2094688
0.70706934 -0.86162996 2.2112694
1.8943175 -0.66289055 2.2159407
1.9161471 -0.51513052 2.2149773
0.8482793 -0.21535431 2.2121334
1.7719009 -0.55285013 2.2276292
1.7966788 -0.54601026 2.2284698
1.8157941 -0.54470521 2.2277856
1.8831701 -0.5162642 2.2237978
0.84429747 -0.2202289 2.2241311
0.85098732 -0.21440747 2.2206306
1.3945194 -0.18094808 2.2209909
0.82541358 -0.080338225 2.2279823
-0.033523675 0.16960414 2.2297218
0.95056272 -0.55062598 2.2346301
0.8483817 -0.22070466 2.2317891
0.9245708 -0.34782824 2.2430809
1.8419214 -0.16464831 2.250308
0.88805073 -0.92012918 2.2693555
0.84635937 -0.2398016 2.2693529
0.057242587 0.00059996423 2.2737031
0.8914867 -0.94061232 2.2947068
1.4176848 -0.76735544 2.2985861
0.66689456 -0.32858476 2.2997491
1.903764 -0.28782055 2.3019311
1.3777046 -0.33435568 2.3269303
1.4940906 -0.23632026 2.3288918
1.1657795 -0.66324329 2.3345459
1.8382885 -0.57236832 2.3378208
1.1868383 0.23838487 2.3377705
1.5394982 -0.37273198 2.3473167
1.4641684 -0.074230686 2.3524876
1.5019715 -0.80014682 2.3680427
1.6761078 0.0057838866 2.3792417
1.5562257 -0.23989438 2.3980091
0.95001215 -0.82554114 2.4015067
0.99091417 -0.46564987 2.4020562
0.0044966554 0.14512873 2.4067833
0.94923252 -0.71666718 2.4137216
1.0701116 -0.48860443 2.411763
-0.061709698 0.027892433 2.4158874
1.7481303 0.10418899 2.4177396
1.3891541 -0.16787741 2.4387753
1.0103405 -0.30446947 2.4589002
0.99133825 -0.30846313 2.4744837
-0.055658929 0.0016990248 2.4928181
-0.31750891 -0.12025493 2.5320349
