# .PCD v0.7 - Point Cloud Data file format
VERSION 0.7
FIELDS x y z
SIZE 4 4 4
TYPE F F F
COUNT 1 1 1
WIDTH 120
HEIGHT 1
VIEWPOINT 0 0 0 1 0 0 0
POINTS 120
DATA ascii
-2.2030251 -0.72680414 0.71611339
-2.213491 -1.1156241 0.74032128
-2.2917786 -0.92905307 0.75741613
-2.3180764 -0.96312332 0.80866754
-2.2477555 -0.69241601 0.81029081
-2.2098045 -0.79807234 0.83274454
-2.2389019 -0.79709423 0.84583724
-2.286592 -0.64953548 0.8710978
-2.2724001 -0.79140621 0.88174731
-2.3200345 -0.78008658 0.88876903
-2.3103337 -0.53004861 0.90808052
-2.3082926 -0.5290693 0.90676278
-2.3227227 -0.52097821 0.91990519
-2.3322425 -0.72019577 0.92979783
-2.2018437 -1.220443 0.93451124
-2.183902 -1.1971912 0.93569529
-2.2395689 -1.2477118 0.95166349
-2.2433722 -1.2513982 0.98239017
-2.1901627 -1.0958244 0.98428255
-2.2042558 -1.0696369 1.0052562
-2.3165305 -1.2981811 1.0305456
-2.1373706 -1.2938768 1.1253369
-2.2126331 -0.95325816 1.1211746
-2.159513 -1.3106123 1.1392051
-2.155349 -1.3022721 1.1323167
-2.2483933 -0.96814102 1.152544
-2.2451043 -0.91318637 1.1588869
-2.2487576 -0.89378756 1.1598858
-2.3141952 -0.54343188 1.1781189
-2.3025541 -0.92975748 1.1898379
-2.2911432 -0.925129 1.1935062
-2.3363788 -0.97570032 1.2114698
-2.4569764 -0.96441442 1.2849581
-1.9241521 -1.3183722 1.3429476
-2.0300539 -1.3543398 1.3824576
-2.0008025 -1.3455181 1.3841158
-1.9969494 -1.3212087 1.3956962
-2.1559248 -1.3361859 1.4353921
-2.3350334 -1.2849978 1.5693511
-2.3498716 -1.2937285 1.5736756
-2.0730338 -1.3050077 1.6162522
-2.0077202 -1.820061 1.6322141
-1.9978319 -1.8109339 1.6353924
-2.1215181 -1.8457659 1.6837004
-2.0365109 -1.7091168 1.6885743
-1.9706265 -1.6298828 1.6899685
-2.1094224 -1.377614 1.7006557
-2.16857 -1.8681901 1.7223275
-2.151998 -1.8544205 1.7236185
-2.0349119 -1.6360981 1.7227585
-2.0587716 -1.5746416 1.72984
-2.1699622 -1.8599459 1.7362298
-2.0792167 -1.0860779 1.7380449
-2.0706644 -1.5817755 1.74543
-2.062191 -1.5665785 1.7441521
-2.0417662 -1.5672899 1.7472237
-2.0805221 -1.5462298 1.7487944
-2.0859997 -1.1004646 1.7413793
-2.0899003 -1.0956128 1.7464794
-2.0454931 -1.5876985 1.7594602
-2.0984561 -1.1018554 1.752234
-2.1426306 -1.6795362 1.7754248
-2.1099775 -1.6184946 1.7848061
-2.0875628 -1.5929437 1.7814134
-2.1717861 -1.5754678 1.7970732
-2.1903565 -1.5849576 1.8053594
-2.0272686 -1.4322662 1.8000983
-2.0636678 -1.4345281 1.8186508
-2.0704391 -1.428313 1.8171545
-2.0668225 -1.42738 1.8215247
-2.0233953 -1.2884719 1.8216319
-2.2934387 -1.9530303 1.8368261
-2.0324655 -1.2873003 1.8450284
-2.0764008 -1.3164738 1.8687538
-2.0687141 -1.3346239 1.8786919
-2.0667868 -1.3132486 1.8703356
-2.0694177 -1.2857554 1.8797121
-2.089859 -1.4195701 1.8984981
-2.1099732 -1.3252414 1.8930422
-2.0390227 -1.3120668 1.8902683
-2.0437655 -1.1459119 1.9160165
-2.0570083 -1.1513226 1.9301122
-2.0593483 -1.1482434 1.9373351
-2.0476913 -1.1473131 1.9374603
-2.0297463 -1.2866819 1.9554913
-2.0599606 -1.1578033 1.9590139
-2.0990474 -1.1637847 1.9676648
-2.0459664 -1.0456587 1.9753146
-2.038748 -1.0430291 1.9707123
-2.1439044 -1.1863347 1.9994037
-2.0537119 -1.0582528 1.9913702
-2.0693142 -1.0495715 2.0061219
-2.0459309 -0.9686476 2.0059075
-2.154321 -1.1857481 2.0193577
-2.0606539 -1.0739521 2.0121238
-2.0947163 -1.0574924 2.0106065
-2.0405402 -0.97237343 2.0104473
-2.0702953 -0.97923523 2.0377948
-2.0933914 -0.98106962 2.04686
-1.8873758 -0.69954163 2.0430996
-2.0740216 -0.99284703 2.0532374
-1.9072063 -0.70034933 2.0514064
-1.9988273 -0.46272448 2.0868182
-2.0149829 -0.45445207 2.114315
-2.0211015 -0.70237118 2.1237288
-2.0243158 -0.43512681 2.1472197
-2.0219858 -0.69969606 2.1622939
-1.8514423 -0.05043523 2.1737709
-1.510252 0.10842345 2.1792607
-1.8871005 -0.045624059 2.1974595
-2.0788128 -0.45034629 2.2012157
-2.0536008 -0.23211393 2.2353635
-2.0282564 -0.23166576 2.2349381
-1.8456094 -0.06003115 2.2392588
-2.0675147 -0.068165973 2.259795
-2.2439182 -0.36157164 2.2606709
-2.0752113 -0.34573162 2.2613959
-1.8924303 0.066476807 2.271981
-1.747293 0.052873928 2.2987404
-1.9646193 0.00021775547 2.4556146
