# .PCD v0.7 - Point Cloud Data file format
VERSION 0.7
FIELDS x y z
SIZE 4 4 4
TYPE F F F
COUNT 1 1 1
WIDTH 116
HEIGHT 1
VIEWPOINT 0 0 0 1 0 0 0
POINTS 116
DATA ascii
-2.7018616 -1.16223 -0.84797913
-2.0529656 -0.79926658 -0.84632486
-2.0821426 -0.79204488 -0.81646621
-1.8867688 -0.54578793 -0.79652977
-1.9167336 -0.5586226 -0.78784549
-1.9039959 -0.55793744 -0.78685415
-1.8556024 -0.2900441 -0.78439981
-2.5958133 -0.89631134 -0.77328324
-1.9347786 -0.57389992 -0.77778631
-1.9366186 -0.56851381 -0.77005726
-1.9221108 -0.56196797 -0.77534789
-1.5398455 0.12253095 -0.76344895
-2.6508386 -0.90680313 -0.75893086
-1.960318 -0.58550519 -0.75203949
-2.12644 -0.57878476 -0.75998676
-1.9280896 -0.57370424 -0.74324018
-1.9391662 -0.56753409 -0.74674112
-1.7543235 -0.3092446 -0.74336183
-1.7908489 -0.32953709 -0.71328086
-1.775169 -0.31463161 -0.712924
-1.8138976 -0.33837974 -0.69401169
-2.5324397 -0.65348244 -0.67093116
-1.3329778 0.79453349 -0.65443701
-1.8267335 -0.41166073 -0.63829851
-1.4565536 0.16821808 -0.63139635
-1.4608599 0.17231598 -0.63142145
-1.4631201 0.45432195 -0.63277739
-1.5689322 0.59709853 -0.63780862
-1.3483508 0.6739856 -0.63766116
-1.2278314 0.93699926 -0.63120341
-1.902115 -0.42061698 -0.62725985
-1.8995671 -0.41692975 -0.6215983
-1.3614296 0.1683383 -0.62015754
-2.2951353 -0.36483648 -0.61875093
-1.4411469 0.16162284 -0.61217993
-1.3603333 0.67035419 -0.61412555
-1.3755242 0.68588269 -0.60110879
-1.2293158 0.97873116 -0.60061139
-1.9479926 -0.44285691 -0.59970695
-1.9907465 -0.091912493 -0.59557092
-2.5460489 -0.39483482 -0.58157426
-1.6241186 -0.36082661 -0.58555639
-1.3873622 0.65537369 -0.58417374
-2.0595045 -0.096271053 -0.57826376
-2.0051987 -0.088043898 -0.57639855
-1.6758522 0.16052437 -0.57064736
-1.2477499 0.97422618 -0.57716542
-2.4273779 -0.67137957 -0.56572855
-1.2600888 0.97967392 -0.56132841
-2.6540194 -1.2549827 -0.55880523
-1.9634888 -0.64661241 -0.55920821
-2.4039285 -0.9683888 -0.54566783
-2.5275786 -0.98438632 -0.53052306
-1.5517733 0.15310888 -0.53093529
-1.4642156 0.46741921 -0.5340566
-2.6558826 -1.0230275 -0.50787497
-1.9067928 -0.69671017 -0.50800174
-1.6850023 -0.40918794 -0.5094676
-1.8908405 0.15168002 -0.50042564
-1.2553625 0.57262063 -0.50967121
-1.9245852 -0.70624334 -0.49821588
-1.7147046 -0.41415724 -0.49223027
-1.8986334 -0.6865288 -0.48769045
-1.9011745 0.023414599 -0.48571008
-1.2513071 0.63387579 -0.48828357
-1.9110892 -0.40994525 -0.47585672
-1.3926364 0.41061288 -0.47048372
-1.1528189 0.91501993 -0.47429603
-2.2708745 -0.71575594 -0.46336553
-1.2213769 0.33870268 -0.45707774
-2.762068 -1.0530963 -0.44865122
-1.7719499 -0.45282662 -0.44512784
-1.7641858 -0.43966207 -0.42432454
-1.5824745 -0.180492 -0.42261291
-2.1100619 -0.45689759 -0.40320456
-1.4347231 0.068444081 -0.39060718
-1.1691269 0.47136983 -0.39416376
-1.4254727 0.055633821 -0.38477531
-1.6403235 -0.19369669 -0.37275445
-1.4628383 0.078522965 -0.37625355
-1.5019164 0.69339919 -0.37837738
-1.4374352 0.057960074 -0.36757877
-2.2487462 -0.46565312 -0.35708913
-1.4431071 0.055598803 -0.35937345
-2.274514 -0.47695285 -0.33907387
-1.4778062 0.054579403 -0.33505669
-1.2777046 0.26520741 -0.32718232
-1.3192533 0.3226476 -0.31526187
-2.4380248 -0.49979427 -0.30702898
-2.1838286 -0.20460844 -0.30449194
-2.1686528 -0.21082327 -0.29729432
-1.7562066 -0.11758491 -0.18970583
-1.5274353 -0.047550879 -0.16256119
-1.3242764 0.26908723 -0.16460827
-0.94072908 0.95621037 -0.14293092
-1.3399724 0.26789483 -0.13663182
-2.2102306 -0.38811633 -0.1277146
-1.1078659 0.79923934 -0.12347469
-1.2234083 0.27773038 -0.11060501
-1.1863506 0.4708696 -0.10059255
-1.2125736 0.47863948 -0.091036551
-1.1840748 0.47035602 -0.095232911
-1.1576772 0.50265175 -0.096460745
-1.6452125 -0.10440424 -0.065878883
-1.1752617 0.48645845 -0.048879929
-0.96871853 0.72014904 -0.0079189492
-1.4407614 0.20118301 0.028982829
-1.0520003 0.6862005 0.035485212
-1.0487188 0.68475288 0.049309414
-1.065341 0.69473648 0.042190697
-1.1653911 0.79686886 0.052921031
-1.1072645 0.71934241 0.060297273
-1.0247483 0.7025404 0.070484504
-1.0717908 0.69044179 0.081058443
-1.0820209 0.69855988 0.11250693
-1.2424641 0.801525 0.11329155
