# .PCD v.7 - Point Cloud Data file format
VERSION .7
FIELDS x y z
SIZE 4 4 4
TYPE F F F
COUNT 1 1 1
WIDTH 1370
HEIGHT 1
VIEWPOINT 0 0 0 1 0 0 0
POINTS 1370
DATA ascii
2.67764807 2.14056349 -2.49058747
4.54400873 1.14495695 -2.7024579
2.43256378 2.21465802 -2.56763721
4.70649147 0.912731171 -2.99541354
4.33171177 1.74295461 -4.04542017
4.72181654 1.14011347 -2.89998746
2.53378105 2.23615575 -2.69170308
1.976264 1.7572099 -3.74177027
4.560462 1.62865281 -3.50995994
2.7799685 1.03659236 -2.37196374
4.54803848 1.69437671 -3.09534836
4.46728134 1.92646229 -3.57453775
4.45721388 1.92280209 -3.58821869
4.43085718 1.91813266 -3.58066964
4.68183327 0.589373946 -3.16747689
3.63319778 1.73601472 -1.81401503
5.00112104 0.846285701 -1.87730002
3.971488 1.35408854 -0.594601333
4.13636637 1.37735748 -0.637374878
4.11515236 2.47040939 -3.78611517
4.10674095 1.19287109 -2.79619646
3.83381319 1.61814821 -1.47376573
4.86373329 0.264093429 -2.61479998
4.90179443 0.528703511 -2.36786008
1.95063329 1.96622467 -3.61094213
1.97138703 1.78063536 -3.78215146
1.94232106 1.93382263 -3.58701801
1.6531862 2.18159747 -3.350559
1.97380078 1.77173805 -3.74790144
1.83004212 2.4589479 -3.35926247
2.20805407 1.89202285 -3.57256961
2.0540123 1.94581711 -3.61569166
1.97512054 1.77987945 -3.76738477
1.82310855 2.45812798 -3.34316611
1.8200829 2.00174093 -3.83602047
1.96187031 2.4896524 -3.29309082
1.97188425 2.45561838 -3.26104426
1.82166159 2.49865746 -3.3771975
1.97942424 2.43389559 -3.24999189
1.96767998 2.46483159 -3.27124405
1.81961906 2.45115447 -3.46028566
1.69754517 2.49650121 -3.33818507
2.31224656 1.7152667 -3.99898648
1.81450677 2.46255946 -3.47286415
2.2182641 1.96075797 -3.84918499
2.20502901 2.00288272 -3.91168928
2.30779982 1.74513721 -4.04441643
2.30215144 2.03654766 -3.76466751
2.32703424 2.51497102 -3.39673519
2.31695533 2.58009243 -3.43177652
2.31758952 2.52406812 -3.378649
2.29766846 2.03925967 -3.90889668
2.32295799 2.54292679 -3.40122199
2.32028818 2.56099176 -3.4818542
2.32277822 2.54639864 -3.45900011
4.0239234 1.51168466 -4.24777317
4.47097254 1.11648488 -2.66045213
4.86694193 1.40574384 -1.97396874
2.34492993 1.95737422 -3.62369609
4.68403149 0.609762251 -3.16255093
4.75049925 0.732668817 -2.87450123
4.55790949 1.79175067 -3.30980396
4.40123129 1.88183057 -3.56091928
2.33437848 1.92571294 -3.60417557
4.55918169 1.6877532 -3.12942243
4.69623137 1.12767923 -2.68607664
4.88514185 1.76109648 -1.9107821
2.30625749 2.00704837 -3.86004353
4.71621275 0.907963634 -3.00396132
4.70834017 0.91534543 -2.97868133
2.3053472 1.99306738 -3.8514564
4.76340389 1.14646745 -2.71959114
4.79821539 1.05002224 -2.85049748
4.76561928 1.04217315 -2.82495522
4.87572098 1.67643189 -1.92549729
4.74338388 1.29868138 -3.07166457
1.8883245 2.36375475 -5.4136939
4.81967306 0.511514902 -2.69523787
4.00476885 1.46424973 -4.160851
4.50662565 1.74965394 -3.78179169
5.20309687 -0.0509897545 -1.58111823
4.50190735 1.73805797 -3.79196191
4.69280291 0.588232398 -3.17080474
5.03841019 0.168879166 -2.10620737
5.32463503 -0.0879557282 -1.12447047
4.49870586 1.76866341 -3.62014842
4.8871932 0.289863259 -2.53555894
5.20441771 -0.0516121611 -1.58130169
5.03131008 0.155884355 -2.11300421
5.20878506 -0.0409428999 -1.57839131
4.40928173 2.06904459 -3.39533305
4.74107409 0.441077888 -3.05552649
4.94218349 1.15664232 -0.0709421784
4.59397316 1.43015158 -3.56435108
4.57145119 1.42185569 -3.55993795
5.33308315 -0.0968280062 -1.12601292
5.04405403 0.357604265 -1.97847378
5.54855251 -0.0537173226 -0.322073817
5.13567448 0.235123098 -1.63853383
4.51127148 1.58220577 -3.50709057
5.49004459 -0.235616386 -0.658855557
4.68988228 0.612974226 -3.16118288
5.19265556 0.175435483 -1.53307366
5.05650949 0.381467849 -1.91027296
5.18432188 0.175333768 -1.54061174
5.50478125 -0.0640661865 -0.348386645
5.23220587 0.121530011 -1.39049435
4.51776314 1.74039483 -3.5526917
3.944484 2.53123307 -3.70952034
5.04419231 0.356247604 -1.97873855
5.18801832 0.19709453 -1.53035057
5.20997143 -0.0642034858 -1.57918501
5.23171329 0.115187787 -1.39081335
5.3345232 -0.0864790529 -1.11381912
4.88009501 0.726162672 -2.35613608
4.59143209 2.02757692 -2.5376575
4.90074539 0.844222128 -2.24093366
4.52698946 1.83984089 -3.42337584
4.54623795 1.82777143 -3.3965621
5.20052242 0.173933923 -1.5346725
4.46282434 1.77283907 -3.3307178
4.54204941 1.13453293 -2.67068887
4.4943943 1.73269188 -3.78809834
4.7185545 0.871397376 -2.94339275
5.17049837 0.53573209 -1.38915241
5.02413368 0.72411561 -1.8194375
5.5444479 0.447255373 -0.0117947944
4.71442556 0.989235938 -2.95490694
5.03985882 0.719528973 -1.81917572
4.51268768 1.16978037 -2.79327059
5.1853056 0.533980131 -1.38664973
5.20236826 0.586739182 -1.26109314
5.04102659 0.898073435 -1.75387573
5.26034021 0.573919892 -0.85829258
5.03208733 0.952813447 -1.72776711
5.21313047 0.585705519 -1.25971031
5.16822672 0.389395297 -1.97439373
4.51956844 1.1802808 -2.79061723
4.71915102 0.903427601 -2.99366522
5.32070255 0.596341312 -0.845780909
4.74111128 0.821637869 -2.77128029
5.03663158 0.963620842 -1.72652531
4.37166977 2.45203161 -3.32150674
4.53460836 1.69533753 -3.46748185
4.54236937 1.72874904 -3.51695013
5.17602491 0.783258021 -1.2823801
4.89338684 1.13392115 -2.17567897
5.20080423 0.741634309 -1.29027748
5.17462587 0.773695171 -1.2819984
5.20306301 1.07354939 -1.10659468
5.37539387 0.0350740701 -0.880407512
5.40104532 0.0312773287 -0.863427401
3.50251317 -0.965516865 0.301401287
5.30087042 0.164882123 -1.00605547
4.81689978 0.716914713 -2.60977983
4.57223034 1.70281267 -3.09492111
4.50059271 1.91922843 -3.50230289
4.30948544 2.41459751 -3.31949878
4.297544 2.62140536 -3.75473142
4.63875008 1.44987214 -2.85437274
4.60214567 1.64877117 -3.32905316
4.53910351 1.84427094 -3.42228556
4.66740656 1.67032874 -3.34316587
4.60029411 1.64651394 -3.32672572
4.54666996 1.85167193 -3.2589047
4.65726995 1.50013721 -3.24533677
4.56249714 1.79654229 -3.32774353
4.52447701 1.83915329 -3.41857409
4.59808254 1.64367998 -3.32725048
4.65490198 1.49771369 -3.24755049
4.51219606 2.12511015 -3.41293192
4.66005898 1.49156606 -3.25320435
5.02883959 0.17856805 -2.10676599
4.54190874 1.84282613 -3.41999531
4.63970947 1.51592243 -2.89978623
4.35362244 2.26684475 -2.78338718
4.60535097 1.79486239 -3.23496556
4.40058327 2.29190087 -2.814713
4.546772 1.84781766 -3.42024827
4.46788168 2.0984993 -3.4059
4.47452545 2.1021471 -3.40448761
4.39263296 2.52486086 -3.44391155
4.59352732 1.64126217 -3.33053207
4.48207617 2.31659126 -2.8119514
4.38378191 2.52337241 -3.44458961
4.57837725 1.9201138 -3.15473866
4.33960295 2.42718863 -3.3184042
4.74487257 0.448242933 -3.05743504
4.4250865 2.49175334 -3.32927179
4.60398245 1.7937398 -3.23142171
4.45989799 2.3173635 -2.82044077
4.5917201 1.52751732 -2.83115292
4.92655611 0.771781743 -2.14811611
4.51461315 1.18203199 -2.79703999
4.48878622 2.11850905 -3.40092254
4.4106226 2.48313522 -3.32102513
5.03930569 0.363868207 -1.97188985
5.11645651 0.986479223 -1.38258648
5.04103804 0.906038642 -1.74085176
5.33027029 1.14634264 -0.614706278
5.02876329 0.936358631 -1.73465478
5.19716454 1.06288958 -1.10955667
5.01975918 1.26459146 -1.64703095
5.46834469 0.948828518 -0.238824725
5.13833427 1.14631689 -1.25677359
5.18617439 1.07628381 -1.11354089
5.32608795 1.20600653 -0.587994516
5.33086824 1.21690869 -0.582999706
5.46364069 0.948238313 -0.236119702
4.38843632 2.29145932 -2.78211164
4.5513854 1.13229477 -2.67285085
4.47207737 2.18379974 -2.54208112
4.65019941 1.49862397 -3.24157548
4.79439163 0.52382338 -2.70864463
4.43552828 2.1728034 -2.53783607
4.93268728 0.761336446 -2.14679027
4.44764566 2.17732263 -2.53308845
5.18107653 -0.030380005 -1.58629227
4.89772797 0.166439846 -2.54443431
4.99034214 0.845309496 -1.88186538
5.19578409 0.38023141 -1.44094443
5.17438698 0.23977834 -1.57019365
5.16946363 0.196819559 -1.53835273
4.55479622 2.23776174 -2.52971959
5.03901863 0.954569995 -1.72795713
5.30404997 0.177791223 -1.0066222
5.11091042 0.98684603 -1.39065063
4.51363564 1.77714443 -3.61431432
4.56526089 1.69724989 -3.10775375
4.94056129 1.16344535 -0.0730401576
5.32527733 0.591438949 -0.847719014
4.4859848 1.75707352 -3.61761808
5.62541866 -0.109646887 -0.246159911
4.28524828 1.05265641 0.107949391
3.78710651 0.93161267 0.405827343
3.5415957 0.846893489 0.603280246
3.98541188 0.96028924 0.383313835
4.33176756 1.00225389 0.244716913
3.63959146 0.151711166 0.838290155
3.93420291 0.908113182 0.466965377
5.46977472 0.313552797 -0.439466625
4.05559111 0.918106139 0.407408476
4.93100357 1.1265707 -0.0562316552
4.33114815 1.00969744 0.267958522
4.33301353 1.00661457 0.260652512
3.48430848 -0.954797447 0.286722004
4.42616081 0.977724135 0.191387102
4.58618689 1.06781316 0.179016575
4.64678049 1.06691587 0.183397904
3.93161798 0.875333786 0.561220348
4.40638924 0.941175282 0.241315275
4.00682497 0.907914877 0.460531086
4.47501612 0.982276797 0.301546872
5.54347801 -0.0172310527 -0.310971051
3.92777658 0.868403256 0.546349525
3.98668575 0.872854233 0.544625401
3.93781805 0.867144167 0.560054481
4.08358812 0.899920523 0.493693054
3.48788118 -0.959817111 0.293620408
5.33672667 1.11173582 -0.623190403
5.57283211 0.952308834 0.371783108
5.332932 1.12022245 -0.62383008
5.37283182 1.12447989 -0.599493146
5.36049604 0.359599799 -0.756243885
3.47509861 -0.946024954 0.285726964
4.49072123 1.12604833 -0.0339446701
3.50722289 0.876375079 0.516021192
3.71069622 0.933305323 0.383193433
3.50788975 0.878494442 0.523495793
2.21518564 0.572783232 1.16313016
5.28909397 0.163960829 -1.01583314
5.28987694 -0.00961446948 -1.09382641
4.60555029 1.64419854 -3.3234477
4.5151639 2.0580349 -3.2739923
4.530581 2.06657815 -3.27102375
3.46979475 -0.946804166 0.271202058
4.64520645 1.48508883 -3.25457692
5.30753422 -0.0940018371 -1.12895596
4.57841206 1.91159403 -3.15218425
0.941276848 0.261489272 1.94710386
0.987133563 0.234524012 1.94363391
0.976486266 0.239174381 1.96867287
0.637206852 0.185173437 2.13523579
4.73736572 0.220180765 1.39301085
1.91719604 -1.36971116 1.86626112
1.08461785 0.2114539 1.999295
1.20286107 0.221227303 2.01588273
2.38056135 0.513538897 1.36421704
1.82953978 -1.60786211 2.00470805
0.549631238 0.115459271 2.21418476
4.52103662 0.279133379 1.41290593
1.0340389 0.0996821821 2.18311143
1.45311654 0.207042679 2.06191158
1.19301224 0.181913942 2.12414742
1.43424642 0.21390076 2.14545822
1.90886402 -1.11916387 1.99651277
4.55042505 0.315959752 1.59962225
0.0655139461 0.239823967 1.91689634
4.58590937 1.91648066 -3.15235591
4.75156641 0.693327129 -2.88961339
4.73916054 0.69793278 -2.89304924
4.73257113 0.816265047 -2.90431881
4.83198547 0.523831367 -2.68979788
4.83057499 0.525223374 -2.68851614
4.81338692 0.500096023 -2.70754862
4.79580927 0.64076376 -2.66099739
4.82477999 0.634528995 -2.64373779
4.84777403 0.716485679 -2.59248018
4.81649399 0.639151216 -2.64675879
4.92472839 0.274347305 -2.51466489
4.82905626 0.7333287 -2.55047822
4.77059555 0.860972643 -2.52031827
4.83525133 0.921410203 -2.4692955
4.87885523 0.809887648 -2.32241106
5.04918575 0.177678049 -2.09621358
4.90073633 0.841402888 -2.24311638
5.05946779 0.173366889 -2.08460736
4.93454838 1.015522 -2.03705192
5.01285982 0.173455656 -2.12771177
5.06358767 0.355789542 -1.96180677
4.974998 0.845422804 -1.90582371
5.04228354 0.725090265 -1.80828071
5.0008688 0.722728312 -1.85568786
4.98739195 0.859191954 -1.8834573
5.02652121 0.715175867 -1.83167946
5.02139187 0.964285135 -1.72433293
5.18988609 -0.173458621 -1.69482017
5.19416142 -0.175633311 -1.69105065
5.16839123 0.230964452 -1.55497885
5.18523121 0.176295832 -1.54140699
5.36433792 -0.41359055 -1.27091491
5.17553568 0.775932729 -1.28089607
5.39185762 -0.102320343 -1.0451684
5.17143822 0.777721047 -1.28886104
5.1894002 0.590017557 -1.28996181
5.15680265 0.758569181 -1.3052671
5.37017012 -0.319464952 -1.16943634
5.36667442 -0.113038555 -1.0897274
5.40979671 -0.123731919 -1.031335
5.16353416 0.75491333 -1.29527819
5.38018417 0.15640083 -0.951617241
5.32568693 0.584896028 -0.83727181
5.4876833 0.318505704 -0.428717464
5.55575228 -0.0496173985 -0.32733357
2.40227532 0.565784812 1.2273227
2.41514754 0.57288903 1.22329772
5.26702785 0.456400007 -1.02167046
5.09892941 0.160141394 -2.05289936
2.22716618 0.515825987 1.32525301
2.21965027 0.579565585 1.17013526
1.85069907 -1.5214802 1.81731594
2.24392962 0.844405055 0.992906392
2.25497293 0.824427366 0.555143893
2.62553859 -1.10436153 0.7156533
2.10714316 1.02042615 0.0573546626
2.64663815 -1.24680352 0.680364311
2.63085699 -1.1055932 0.721225917
2.18915796 0.624284267 1.00811267
4.14318705 0.941495657 0.334581643
3.92415619 0.871624887 0.548816979
3.92480135 0.873266459 0.541847229
4.00135469 0.844401836 0.483839333
4.1892271 0.932657838 0.414634258
4.20993567 0.942805469 0.385080248
4.54337978 1.0604744 0.181207001
4.51909256 1.02104783 0.229639545
3.91577816 0.77752614 0.791223884
4.29496098 0.941433191 0.394059598
4.62168455 1.02492726 0.133703381
4.88228941 1.0957365 -0.00264441199
4.93693113 1.14241111 -0.061132241
4.47711754 0.975810409 0.354181141
4.56170416 0.97751832 0.310478717
4.67043304 1.07135665 0.181686372
4.8023138 -1.15185535 0.804303765
4.80011559 -1.11958814 0.758461952
4.86022234 -1.16555393 0.849471748
4.86390448 -0.924459398 0.958998919
4.81670094 -1.14554358 0.80140388
2.53010249 0.529917717 1.33459818
2.7655201 0.60194844 1.14382958
1.74977946 0.523695648 1.27073848
2.56383824 0.538220465 1.27140677
3.74519753 0.830680907 0.608413994
2.93440533 0.633550107 1.0553906
4.46009588 0.909807086 0.173583746
1.74884081 0.532567859 1.27881527
4.66231871 1.06313944 0.128181234
4.66487026 1.10740292 0.225641713
2.51843309 0.591951787 1.18831336
3.90447521 0.842443764 0.524843574
2.83234 0.590438128 1.22255206
4.8225379 1.08988833 0.0728954747
2.48514032 0.601790547 1.15426159
4.29934597 0.937538922 0.390510172
1.71226239 0.721745372 0.712462008
3.50133944 0.63539505 0.895729959
4.67884302 1.07367992 0.148215845
1.98271668 0.562567353 1.31205332
2.67641521 0.463422894 1.31465709
2.54732037 0.618390024 1.08983266
3.78992748 0.803310633 0.60624814
2.73636389 0.676257432 0.936536014
2.4106586 0.566301823 1.22162879
2.41277504 0.579730153 1.26203799
2.51619053 0.58577162 1.16418695
2.68157005 0.654390275 1.03255248
2.27527118 0.555638075 1.24958944
2.20440483 0.570570588 1.28128743
2.65691996 0.621701896 1.05040836
2.844908 0.676630437 1.01239371
2.65412164 0.622120857 1.10902107
2.90482116 0.661215007 0.9804672
2.97024608 0.670708299 0.973311305
2.82461333 0.64319855 1.03608787
2.96887541 0.672216475 0.945655406
2.75144839 0.625084519 1.12842298
2.42540216 0.494768888 1.43073261
2.51763058 0.512486577 1.25472248
2.83266926 0.640868366 1.05520594
2.82128024 0.638359904 1.0205276
2.82565594 0.633080542 1.03293705
2.59057641 0.0375322811 1.37778771
2.77237654 0.61627382 1.17783749
4.14199448 0.880400062 0.510342181
3.94098806 0.901575148 0.655445576
3.85596299 0.816982627 0.649286926
3.90603375 0.809509873 0.718172014
3.86239505 0.820473731 0.768894851
5.55213642 0.778842092 -0.0495067462
5.5724206 0.446310729 0.00946553703
4.66473389 0.911837101 0.49940598
4.64284754 0.919337153 0.481233686
4.65820408 0.911916435 0.500493646
5.61746264 0.111471571 0.0687630996
4.27262592 0.775587201 0.814253688
5.58982372 0.615283549 0.180413947
5.5373044 0.976328731 0.318054885
5.26278353 0.90370822 0.57890594
5.83369637 -0.973506033 0.329058766
5.31136894 0.824608743 0.654634655
5.32743835 0.83359772 0.669724584
5.36227131 -0.868817091 0.832069159
5.72549295 -1.06190288 0.560895085
5.90967751 -1.12106144 0.61443007
4.14647961 -0.495406479 1.76730442
4.78898382 -0.332817078 1.47699797
4.74830866 0.342307985 1.65542924
3.85359359 0.248056978 1.70686924
0.945998311 0.309034228 1.70842898
0.925426781 0.319069922 1.75054252
0.866048157 0.325840831 1.80757594
0.807763278 0.305468231 1.73423672
0.801230788 0.273100972 1.79040778
0.804197848 0.305132896 1.74332535
0.809343815 0.298211813 1.6787492
1.31909311 0.328160077 1.7450341
1.31735516 0.33157447 1.75402451
1.08162045 0.30086568 1.76536858
1.07247996 0.301908761 1.76126182
1.31399906 0.329645693 1.74293089
1.06189704 0.301358402 1.7428683
1.40039814 0.302970409 1.78458619
1.21860957 0.270199865 1.72355807
1.30046916 0.272051007 1.86801696
0.97009939 0.246522382 1.87906969
1.29788089 0.279116333 1.87389421
2.6288805 0.594780982 1.12424028
2.62078929 0.601195633 1.13747525
2.52649498 0.593858302 1.18508792
3.62051463 -0.195897996 0.663664341
2.93542385 0.639678657 1.06928182
1.80511618 0.475625485 1.47377777
1.8100282 0.463440329 1.43686342
2.82825828 0.611199796 1.11622453
2.92578101 0.614381611 1.12270236
2.84745598 0.587931633 1.15757751
3.59639311 0.160423175 0.785148978
1.80531144 0.47620517 1.49690056
3.58606529 0.690736055 0.986608088
1.46684849 0.203249693 2.04893088
2.60571361 -0.499429703 1.86563993
1.89282632 -1.75771272 1.72085142
3.54668856 0.654369712 0.990272105
3.88588905 0.795450211 0.674454629
3.58278131 0.175354078 0.759720802
3.98747754 0.825028002 0.562453747
4.00021219 0.834569991 0.579687595
3.91878438 0.776985943 0.628263175
3.94950032 0.802311063 0.674207985
3.90929556 0.769494057 0.751565993
3.93547344 0.787555397 0.636922956
3.60583019 0.189924717 0.797456324
3.91385984 0.760446846 0.755827725
3.56902194 0.681739032 1.03820968
3.66969275 0.722075522 0.925447643
3.9250958 0.774314582 0.752428353
3.64040947 0.725778639 1.22353542
3.55570841 0.668514073 0.992817938
3.54577756 0.660158694 0.965588629
3.68619752 0.711104095 0.972222269
5.58880758 -0.168717265 -0.093507573
4.61531925 0.888899446 0.469914079
2.42822051 0.330481082 1.99223828
4.74655533 0.957902908 0.600343227
5.60944796 -0.129680246 0.0869796649
5.55698061 0.618090093 0.163350493
5.42767477 0.394151419 0.0674898028
5.5483408 0.990580142 0.304683089
5.30580044 0.90894568 0.598377645
5.29649687 0.910332978 0.59261322
4.84824467 -1.14950359 0.832662344
5.65035486 0.170678645 0.255494893
5.34198236 -1.07568884 0.67043221
4.81317377 -0.929501891 0.990505874
5.76452351 -0.103061408 0.447678596
5.00331354 -0.803877532 1.34527946
4.91412258 -0.928777575 0.972011566
4.44859552 0.612056553 1.22176802
5.65602064 0.904418826 0.46027866
5.73546553 -1.06833148 0.572855711
5.82824659 -0.407528669 0.476713181
5.36194706 -0.572792232 0.926615655
4.85886192 -0.911286473 0.917757154
5.66503906 0.362254113 0.534774721
4.87817383 -0.549950063 1.31506169
4.79307508 -0.0752493069 1.25041664
4.88175583 -0.652338564 1.27012265
4.87381887 -0.668333352 1.25535262
5.36397314 -0.706486881 0.952876925
4.87517595 -0.547296762 1.31183004
5.42741442 -1.24158514 1.12806892
5.49610567 -1.25323319 1.16417861
4.80652571 -0.142245114 1.47143555
4.77814007 0.258104831 1.45135844
5.90510798 -0.414751947 0.702172995
4.76031923 0.260225713 1.44778395
5.37147284 -1.2202903 1.07943475
5.47753048 -1.27283192 1.18666875
4.67297459 0.347206414 1.70035994
5.89641953 0.578333795 1.06552088
4.73199415 0.339259088 1.64097917
1.91420364 -1.76750517 1.71185076
1.841573 -1.56164324 1.79863882
1.46072257 0.208188742 2.05317879
1.91822875 -1.31551468 1.91517043
1.78501272 -0.703220189 2.18910527
2.58474588 -0.305432707 2.0352242
1.91049445 -1.07548785 2.0017004
1.83672595 -0.0356346965 2.22808981
1.5171845 -0.00804628059 2.37171626
2.57536292 -0.633135736 1.95674241
1.54596245 -0.305750519 2.2730546
1.59342277 0.432963699 1.43304837
1.42547119 0.0728673488 2.36721611
1.6615454 -0.370320857 2.2314949
0.947430372 0.299342304 1.69163537
2.6888032 -0.591809034 1.95442796
2.26266932 0.568420172 1.23690283
4.46168613 0.613590598 1.23565066
1.88134599 0.0736069903 2.22568917
4.83423519 -0.677125692 1.07145607
1.14489532 0.302434981 1.78657484
2.29904795 0.0769550279 2.20348263
1.96318054 0.531443536 1.27376449
4.73755264 -0.316106975 1.52957869
5.75366545 -0.198117331 0.789124191
1.62887704 0.5003649 1.38907039
4.5374651 -0.208022699 1.50380802
1.9816792 0.561014652 1.21631801
5.67456484 0.404981762 0.876450658
5.68729591 0.409064919 0.887236536
5.85306549 0.634111941 1.0941447
4.68033171 0.21570529 1.35134852
4.79431486 -0.326434553 1.49317706
0.565940797 0.207419381 2.06090355
0.213179946 0.334438115 1.62224782
0.505468369 0.181249559 2.07048368
-0.931364834 -1.06469119 2.78638911
0.684082091 0.211686954 2.07814312
0.114129089 0.296488583 1.80916834
-1.02603281 0.449078023 1.31161153
0.861890614 -0.233459011 2.18135977
-0.966609776 0.429490268 1.28214312
-0.995776594 0.439333707 1.29646516
-1.08562887 0.440001965 1.31081963
-0.973274708 0.429005533 1.33452713
-0.994072616 0.444373578 1.29386818
0.478744626 0.507145047 1.29128444
0.307567537 0.443476915 1.41741037
-0.998106658 -0.977083087 2.71536279
1.39443004 0.359321207 1.55293012
0.301106602 0.44808495 1.43014324
-0.935817122 -1.05174756 2.72728729
0.337297589 0.406585842 1.49702275
1.16885126 0.325089216 1.74832416
0.347230196 0.409329772 1.49682271
0.311185271 0.385835707 1.54620886
0.900277734 0.321193129 1.76068079
1.07472956 0.302814245 1.73834085
0.360615522 0.347587466 1.6827749
0.377770305 0.342762887 1.65663826
2.29700446 0.0843272358 2.33166552
1.67610776 0.00578388665 2.3792417
0.564140379 0.280861139 1.79397249
0.179249138 0.335627735 1.67009604
1.82983351 -0.0658808574 2.24885225
1.43381751 -0.753892899 2.24662781
0.94658196 -0.858460248 2.24063945
0.870343804 -0.849542558 2.31178164
2.07302594 -1.00457752 2.07262349
0.933506668 0.00695604831 2.39674759
1.8423835 -0.300184608 2.19471574
0.970229447 -0.725098014 2.36571527
1.33059287 0.0357061699 2.44325209
1.89431751 -0.662890553 2.21594071
0.991338253 -0.308463126 2.47448373
1.46724236 -0.40852657 2.2826755
0.75349921 -0.0637759864 2.71448016
1.92208695 -0.670575142 2.19652367
2.7196877 0.145693481 2.21725726
1.56198156 0.49875924 1.38839018
0.421287239 0.539859474 1.16173923
0.417543769 0.543729961 1.16738808
1.07401884 0.216233015 2.03065515
0.950012147 -0.825541139 2.40150666
1.02732193 0.111573353 2.179286
-0.698240101 0.251043797 1.80460167
0.892942309 -0.725962877 2.18275976
1.41768479 -0.767355442 2.29858613
0.418736011 0.189164072 2.04514694
0.13292709 0.269347876 1.822492
0.926409543 0.026457971 2.44769406
0.666894555 -0.32858476 2.29974914
0.127006873 -0.998155475 2.59071827
-0.126025543 0.0352587067 2.43773818
0.131790876 0.213101968 1.95642591
-1.03079224 0.451835781 1.31282771
0.928276598 0.0323079713 2.44470525
-0.806947887 0.325217754 1.35816956
-0.459897488 0.35962534 1.6885705
-0.90804714 0.401427865 1.40868831
-0.963071883 0.379160851 1.45051372
-1.00653112 0.406438679 1.3897531
-0.772523046 0.259364367 1.83323383
-2.60492849 -0.799874961 -0.106584348
-0.905000329 0.383689255 1.41154623
-0.849126995 0.341474921 1.54172277
-2.54599023 -0.796890318 -0.0955023766
-0.857304037 0.339638829 1.54558921
0.844297469 -0.220228896 2.22413111
-0.825568259 0.345598966 1.53079283
-0.873486459 0.312984556 1.65193653
0.0243394263 0.14358677 2.06299615
-0.0663618594 0.169998556 2.18762207
-1.92415214 -1.31837225 1.3429476
-0.655108333 0.243353426 1.76334178
-0.0122842453 0.0172526203 2.39248443
-0.00264164666 0.0117166806 2.3833375
0.0572425872 0.000599964231 2.2737031
0.304258913 -0.93254298 2.53154612
-0.0875534117 0.0136651453 2.33514428
-1.7433759 -0.693116188 1.48104644
-2.0206759 -0.7198385 1.63890064
-0.79897356 -1.77728176 2.41910315
-2.13559246 -0.72750473 1.7121892
-0.838914812 -1.7928195 2.46891499
-2.08599973 -1.10046458 1.74137926
-2.09845614 -1.1018554 1.75223398
-1.97062647 -1.62988281 1.68996847
-2.19035649 -1.5849576 1.80535936
-0.242019534 -1.00047362 2.62812257
-1.9427737 -0.36225161 2.06558323
-2.07640076 -1.31647384 1.86875379
-2.02971911 -0.77136755 1.86253214
-2.17178607 -1.57546782 1.79707325
-0.693725884 -0.134157807 2.60063934
-2.03902268 -1.31206679 1.89026833
-2.03180981 -0.349492878 2.10050488
-0.762084603 -0.121358678 2.67630768
-0.941260397 -1.04959536 2.72260952
-2.09471631 -1.05749238 2.01060653
-2.05758214 -1.22498667 1.90552354
-0.578188181 -1.06113183 2.73430657
-2.06751466 -0.0681659728 2.25979495
-2.09294438 -0.18366462 2.20653057
-2.0982275 -0.178068116 2.21335864
-0.978582919 -0.96730125 2.68178248
-2.07045674 -0.182606444 2.19187832
-2.01593661 -0.896555185 2.02640438
-2.09585905 -0.362161726 2.16969156
-2.0736804 -0.179797024 2.19143891
-1.08801174 -0.865590513 2.76468539
-2.14390445 -1.18633473 1.99940372
-2.08703756 -0.35716638 2.13805866
-1.91615927 -0.0715222657 2.20205641
-2.01910114 -0.903778076 2.04052806
-2.08718252 -0.0596029237 2.27303028
-1.01231945 -0.877550781 2.73142123
-1.00383306 -0.563653946 2.75944352
-2.54100895 -0.796974421 -0.0925818682
-0.949443817 -1.06512856 2.81875181
-0.781059861 0.241922706 1.83325481
-2.13737059 -1.29387677 1.12533689
-2.15534902 -1.30227208 1.13231671
-2.21349096 -1.11562407 0.740321279
-2.35338664 -0.330148309 0.704884112
-2.18390203 -1.19719124 0.935695291
-2.40635228 -0.321221471 0.719894707
-2.50114703 -0.262798727 0.607363582
-2.51407194 -0.267936081 0.591730952
-2.36504555 -0.835945487 0.294066101
-1.34146774 0.164900869 1.99478948
-2.61544466 -0.612586021 -0.0479077026
-1.510252 0.108423449 2.17926073
-2.41502595 -0.49316296 0.336386323
-2.57095623 0.397247553 0.153641045
-2.5941112 0.543208838 0.190632135
-2.4221828 0.482336998 0.210546359
-2.49039125 0.365634233 0.162117392
-2.54482746 0.530490756 0.194299459
-2.42086792 0.921582282 0.116304666
-2.53045273 0.38890186 0.16457057
-2.47183752 0.507988572 0.207000896
-2.44721079 -0.478155047 0.256259173
-2.00080252 -1.34551811 1.38411582
-1.05592346 -0.214906156 2.73056507
-2.37859702 -0.509877741 0.328091562
-2.71985507 -0.29803136 0.0425422192
-2.38517857 -0.34379217 0.764874101
-2.35714531 -0.409749538 0.967094302
-2.159513 -1.31061232 1.1392051
-1.32339537 0.152234152 1.95507658
-2.30231261 -0.529803336 1.30218196
-2.26450491 -0.55081594 1.29864609
-2.12632847 -0.696038067 1.60239983
-0.819122672 -1.09893465 2.87064433
-0.795576513 -1.06563747 2.71072435
-0.812334895 -1.0860256 2.82503438
-2.07277608 -0.692023158 1.57723927
-0.799341321 -1.06814826 2.71001649
-0.844265342 -1.13509357 2.77239466
-0.992425323 -0.990971506 2.72964287
-1.00367045 -0.987403214 2.75501204
-0.947217703 -1.04763412 2.72651768
-1.01592767 -0.754344702 2.65117836
-1.03063464 -0.764229059 2.76091194
-2.05877161 -1.57464159 1.72984004
-2.07013273 -0.776762843 1.86705351
-0.994277894 -0.706944764 2.75924158
-1.01148248 -0.751303673 2.63537383
-2.11450243 -0.779651403 1.93317151
-0.984562874 -0.71134901 2.73228383
-2.09049749 -0.777750254 1.90655732
0.987650037 0.554610252 1.00542188
-1.0194155 -0.463590622 2.74397898
-1.04458201 -0.254022121 2.75956964
-1.07545471 -0.213086069 2.80605578
-1.02934265 -0.254985213 2.72574902
-1.03896976 -0.309516579 2.77047086
-2.31807637 -0.963123322 0.808667541
-2.37742615 -0.593877792 0.394902527
-2.36865759 -0.508313715 0.327115506
-2.23890185 -0.797094226 0.845837235
-2.57826233 -0.409193903 0.283735007
-2.03815556 -1.63452518 1.72091925
-2.20980453 -0.798072338 0.832744539
-2.41668773 0.597582042 0.225965917
-2.45526218 0.625486314 0.212901294
-2.06219101 -1.56657851 1.74415207
-2.04176617 -1.56728995 1.74722373
-1.53860903 0.0339691453 2.33260345
-2.03246546 -1.28730035 1.8450284
-2.42823935 -0.387529641 0.504404604
-2.41139889 -0.258376122 0.510555983
-2.32646346 0.776740193 0.323788315
-2.08052206 -1.54622984 1.74879444
-2.38322377 -0.339613825 0.706495821
-2.32750201 -0.421328306 0.93707031
-2.0233953 -1.28847194 1.82163191
-2.29999876 0.76509887 0.324174702
-2.30829263 -0.529069304 0.906762779
-2.32272267 -0.520978212 0.919905186
-2.45752668 -0.249590546 0.506635547
-2.39338875 -0.823080242 0.341238081
-2.44178104 0.621488929 0.22139968
-2.56054807 -0.257743835 0.602100551
-2.32923484 -0.425526947 0.942105889
-1.97653854 0.530540705 0.953371406
-2.35069871 -0.442029625 1.00570107
-2.5115912 -0.254242092 0.578194916
-2.5990839 -0.252861679 0.640472591
-2.49887967 -0.300168157 0.678749382
-2.36686873 -0.448296398 0.998545945
-2.34270978 -0.441896677 0.997513354
-0.904827118 -0.974155307 2.61402678
-2.29066348 -0.534970701 1.28348327
-2.28707337 -0.542729318 1.27285111
-0.907509327 -1.04387856 2.66042471
-2.03005385 -1.35433984 1.38245761
-2.14263058 -1.67953622 1.77542484
-2.1559248 -1.33618593 1.43539214
-2.03166819 -1.63767123 1.72459769
-0.941054523 -1.06488717 2.79792595
-2.06298947 -1.09969079 2.05006027
-2.02726865 -1.43226624 1.8000983
-2.08990026 -1.09561276 1.74647939
-1.79246533 0.0201302003 2.05724978
-2.06366777 -1.43452811 1.81865084
-2.03350139 -1.10137212 2.04744315
-2.4824698 -0.473055273 1.13822949
-2.02463341 -0.969308376 1.99554968
-2.44829273 -0.474479258 1.14745712
-1.75465453 0.0218989756 2.00935555
-1.81667078 0.0764896646 2.12890768
-2.00062323 -1.08607745 1.98758554
-2.05371189 -1.05825281 1.9913702
-1.83348453 0.0795070827 2.13357115
-2.15432096 -1.1857481 2.01935768
-2.07029533 -0.979235232 2.03779483
-2.0599606 -1.1578033 1.95901394
-2.06015515 -1.27837634 1.96187842
-2.06469345 -0.847328007 2.05839586
-2.04054022 -0.972373426 2.01044726
-2.09339142 -0.981069624 2.04685998
-2.38465381 -0.713106513 1.76719344
-2.09904742 -1.16378474 1.96766484
-1.84560943 -0.0600311495 2.23925877
-1.88737583 -0.699541628 2.04309964
-1.86796868 -1.88865209 2.56109262
-1.91532052 -1.46973956 2.72471833
-2.04769135 -1.14731312 1.9374603
-1.81942701 -1.45507133 2.65418077
-1.76482248 -1.1841172 2.66204166
-1.79734302 -0.578654885 3.16964388
-1.81886995 -1.32528627 2.68911791
-2.13350821 -0.0886731222 2.37553501
-1.91715205 -0.0398817658 2.35202789
-2.24391818 -0.36157164 2.2606709
-2.11725616 -0.206698611 2.31840777
-1.9500283 -1.45264006 2.72513962
-1.88593459 -1.8881005 2.56062794
-2.11530781 -0.364440709 2.17743731
-1.96111262 -1.34442306 2.78487015
-2.04939437 -0.185207546 2.17928839
-2.01280308 -0.907310963 2.04772854
-1.83893394 -1.32745266 2.72576642
-1.9339062 -1.46133029 2.71999574
-2.58955956 -0.131771922 0.252908647
-2.35988879 0.737503707 0.575277388
-2.34222746 -0.414503783 0.95098877
-2.31033373 -0.530048609 0.908080518
-2.42478156 -0.316960752 0.734308541
-2.1277585 -0.797312975 1.92276669
-2.23956895 -1.24771178 0.951663494
0.515015244 0.30418998 1.6905067
-2.26470351 -0.534924805 1.27227604
-2.04376554 -1.14591193 1.91601646
-2.05700827 -1.1513226 1.93011224
-2.10676956 -0.718674719 1.70728159
-2.28202248 -0.540681541 1.31190944
-2.12295938 -0.730300248 1.732409
-1.98941135 0.386284381 1.44577765
-1.747293 0.0528739281 2.29874039
-2.13467503 -0.79048717 1.9436388
-2.27287507 -0.545756757 1.30520606
-1.71158969 -0.0565151684 2.54463148
-2.46866012 -0.286289275 0.65500927
-1.88866723 0.093771562 2.18645549
-1.77522254 -0.000958790653 2.14520383
-1.83738911 0.0773190409 2.12823057
-0.149991289 0.0259032436 2.32893109
-2.41614079 -0.332132578 0.781269312
-2.0486424 -0.969033301 2.006845
-2.40438986 -0.345205545 0.795610726
-2.38944554 -0.344782859 0.776731133
-2.26825213 -0.572256327 1.39418197
-2.04321957 -0.968261898 2.00497007
-1.79116702 0.0121398736 2.175174
-1.75793457 -0.0412355997 2.62288857
-1.87474656 0.0924858525 2.18928003
-2.02000785 -0.834470928 2.0233078
-2.356529 -0.687530935 1.72926438
-2.40221834 -0.261287898 0.515117943
-1.8541429 0.0933391154 2.15391302
-1.91065896 0.113502294 2.25620198
-2.7691741 -0.289745837 0.0323101431
-2.52403545 -0.0299049411 0.0811743736
-2.15661192 -0.719537437 1.65958393
-2.5381546 -0.0101385554 0.0890226588
-2.69886613 0.454569072 0.121670991
-2.32732129 0.732391357 0.325179607
-2.41619968 -0.262892962 0.492163956
-2.59945607 -0.00781681668 0.0770395547
-2.25136089 0.675035298 0.581017733
-2.28347683 0.751877069 0.32126534
-2.59534121 -0.00443691621 0.0830230638
-2.21263313 -0.953258157 1.12117457
-2.63249803 -0.133985996 0.235739201
-2.7376821 -0.0540767312 0.124883138
-2.03651094 -1.70911682 1.68857431
-2.53415489 -0.138341859 0.331803709
-2.57689071 -0.12707217 0.2640692
-2.17770743 0.54981941 0.925581276
-2.78274202 -0.0393739976 0.119621783
-2.24538732 0.669438124 0.590017915
-2.34161019 0.775261939 0.324395239
-2.64226961 -0.11269211 0.267088711
-2.47407722 -0.0264897645 0.0930256248
-2.36122227 -0.318027824 0.692136765
-2.56826043 -0.0888493881 0.145422399
-2.04756045 -1.58628774 1.75925219
-2.54923272 -0.142148346 0.249109268
-2.63664198 -0.119784132 0.257573217
-2.54931045 -0.135720432 0.260223389
-2.7798028 -0.0282217134 0.119486332
-2.28262424 -0.738397419 1.77041268
-2.0875628 -1.59294367 1.78141344
-2.75952768 -0.0310118273 0.123443
-1.99694943 -1.32120872 1.39569616
-2.41992545 -0.349499643 0.793026567
-2.10997748 -1.61849463 1.78480613
-2.84685159 -0.0425839722 0.113015138
-2.07066441 -1.58177555 1.74542999
-2.0434258 -1.5891093 1.75966811
-2.75190806 -0.0714393333 0.122865781
-2.06682253 -1.42737997 1.82152474
-2.26529717 -0.557870746 1.30401349
-2.48751831 -0.21210143 0.454123348
-2.48144698 -0.215827867 0.458218247
-2.71564651 -0.0789640695 0.29404974
-2.02974629 -1.28668189 1.9554913
-2.48730588 -0.226650134 0.450174063
-2.50692129 -0.28735289 0.678934515
-2.21664047 -0.565129936 1.32777059
-2.26894927 -0.565108776 1.34472609
-2.0704391 -1.42831302 1.81715453
-2.03874803 -1.04302907 1.9707123
-2.10997319 -1.32524145 1.89304221
-2.77351475 0.806584239 0.019539969
-2.04163814 -0.772653222 1.84936595
-2.76661754 0.797053695 0.0326669961
-2.06941772 -1.2857554 1.8797121
-2.04950666 -0.777592778 1.8609556
-2.05437827 -1.23702466 1.91496432
-2.06678677 -1.31324863 1.87033558
-2.767874 0.811480165 0.0171762258
-2.07629347 -1.22810698 1.91904926
-2.07086754 -1.22546971 1.91452038
-2.04596639 -1.04565871 1.97531462
-2.06871414 -1.33462393 1.87869191
-2.05525064 -1.08484221 1.94212508
-2.06082702 -0.984012842 1.99585235
-2.06065392 -1.07395208 2.01212382
-1.9072063 -0.700349331 2.05140638
-2.04929709 -0.987821698 1.98942542
-2.23251104 -0.576932073 1.37096977
-1.85844791 -1.57249618 2.64624929
-1.90819705 -1.22474015 2.81600285
-1.86891878 -1.58398449 2.68720746
-1.67703962 -1.16388178 2.99378324
-1.87607253 -1.53696704 2.72102618
-1.86366653 -1.29805446 2.81446028
-1.84639728 -1.19977808 2.83265114
-1.81910849 -1.12703621 2.83085465
-1.83548081 -1.19820392 2.82055163
-1.82139707 -1.09117234 2.87730908
-1.83919895 -1.14953732 2.84638333
-1.87309515 -1.30568385 2.81490517
-1.8719523 -1.38163781 2.732867
-1.84600353 -1.27916133 2.79792762
-2.07521129 -0.345731616 2.26139593
-1.65259528 -0.346727282 3.09863281
-2.10435176 -0.379841626 2.21403098
-2.05360079 -0.232113928 2.23536348
-1.9231286 2.34386407e-05 2.36098719
-1.94463134 -0.0140206097 2.33803916
-2.27240014 -0.791406214 0.881747305
-1.86922932 -0.0560638718 2.15704846
-1.83411491 0.0777947977 2.12690878
-2.38335156 -0.358641833 0.73429215
-1.85070753 -0.0572780892 2.13305092
-1.86597943 -0.0605364963 2.1384213
-2.71584797 -0.279518336 0.821855009
-1.71080387 -0.0595301799 2.54061937
-2.64170909 -0.186404034 0.494416565
-1.9188832 -0.0288259741 2.20415711
-1.88149357 -0.0100300387 2.265733
-2.43377185 -0.315279156 0.735725105
-1.9003005 -0.00616813032 2.35479426
0.00718298927 0.18115519 1.81965113
-2.41357517 -0.508681715 1.17650878
-2.07162333 0.017324727 2.48043609
-2.02431583 -0.435126811 2.14721966
-1.91676247 -0.0201326888 2.30365705
-2.0556047 -0.379110217 2.21904278
-1.99882734 -0.462724477 2.08681822
0.173355326 0.266647965 1.79650998
-1.91097474 -0.0105868336 2.3503406
-2.20184374 -1.22044301 0.934511244
1.25415647 0.513572931 1.15551209
0.875023127 0.143531173 1.98617303
2.64390969 1.27646852 -0.479731381
0.635995984 -0.887106359 1.97578335
2.22846842 1.12029278 -0.166514531
-0.27420336 -0.963189662 2.37264085
1.63864613 0.702293336 -0.165884495
0.0211378764 0.120982476 1.87219846
-0.269852966 -0.988034248 2.56630564
-0.321112335 -1.0685513 2.61334372
-1.04865921 -0.259386241 2.76150465
-1.02280331 -0.505243778 2.77405572
-2.05934834 -1.14824343 1.93733513
-1.03270268 -0.314075857 2.71675348
-2.07076335 -0.916956842 2.09502673
-1.06690431 -0.184700191 2.7313869
-2.06931424 -1.04957151 2.00612187
-1.0552212 -0.192278013 2.75212121
-1.07494593 -0.187537983 2.76026583
-2.42856598 -0.332262754 0.781454027
-1.89243031 0.066476807 2.271981
-2.01498294 -0.454452068 2.11431503
-2.03330708 -0.903611898 2.02845144
-1.85989428 -0.0623655692 2.12418175
-2.04801106 -0.724235296 2.07330585
-2.07881284 -0.450346291 2.20121574
-2.03612208 -0.389723718 2.19561648
-1.87685907 -0.0518144071 2.16438389
-2.03316641 -0.393148005 2.19441485
-2.01975322 -0.389556557 2.16666818
-2.02198577 -0.699696064 2.16229391
-1.93019521 -1.55208671 2.44277334
-1.88710046 -0.0456240587 2.19745946
-1.85144234 -0.0504352301 2.1737709
-1.92577505 -0.0166757088 2.37038589
-1.88455343 -0.0327735767 2.25509691
-1.85770643 -1.88514543 2.5590179
0.984369516 0.551008463 1.0063231
-1.87300897 -1.5896945 2.64885807
-1.88764071 -1.60828674 2.68544102
-1.93045723 -1.21446419 3.0075767
-1.87720132 -1.59631336 2.69071865
-1.85533607 -1.56539822 2.66899776
-1.84631252 -1.4821552 2.68513536
-1.83370352 -1.34000766 2.60814214
-1.86134815 -1.27722323 2.75728297
-1.86724269 -1.49472976 2.73576689
-1.84734738 -1.32117987 2.78606009
-1.83172917 -1.35205209 2.70092368
-1.8517369 -1.31948948 2.78908587
-1.649526 -0.761649847 2.83764458
-1.84505785 -1.15380812 2.83847666
-1.72353363 -0.754084945 3.07641506
-1.76112449 -0.762458563 3.13598061
-0.356444269 -1.04570675 2.78410149
-0.2368159 -0.985579491 2.554636
-0.625136435 -1.51735246 2.22921324
-2.22997236 -0.638713777 1.49662316
-0.340405077 -0.984578371 2.49480224
-0.627231658 -1.51324332 2.44456792
0.630168378 0.18134667 1.99183536
-0.710478306 -1.44573927 2.61815834
-2.13039899 -0.733234704 1.71723497
-0.730095387 -1.52694607 2.4729259
-0.849333227 -1.77221751 2.41444421
-2.18350053 -0.712213516 1.72154617
-0.443603992 -1.09777009 2.88466191
-0.687371969 -1.04654121 2.63820601
-0.575009346 -1.06149793 2.69237041
0.217299968 0.306210667 1.80968761
-0.578721881 -1.05401504 2.70318484
0.713217139 0.211429834 2.08787298
0.620357692 0.344566256 1.5528307
0.114999995 0.276992738 1.63185561
-0.955714107 -1.00033998 2.72377944
-0.927080333 -1.06947732 2.80342603
-1.03648269 -0.379365712 2.76236391
-0.0182488617 0.142984688 2.0266335
-1.06380165 -0.190174073 2.7179594
-1.96461928 0.000217755471 2.45561457
-1.91320789 -0.021115005 2.33341432
-1.83982778 -1.87626719 2.55501008
-1.88176346 -1.49884522 2.68870521
-1.82401812 -1.14287722 2.83411288
0.951876283 0.460764796 1.2338016
-0.0690192282 0.105029516 2.30899549
0.931265771 0.512214839 1.11905932
0.905366719 0.303932548 1.69792461
1.6433444 0.707443535 -0.162001029
0.629647195 -0.822337031 1.99537253
0.868771315 0.366289735 1.45230889
0.205820352 -0.955032706 2.49478054
1.23418641 0.500597596 1.14090014
1.28565359 0.518902481 1.19249022
1.07325554 0.125616089 2.19617939
0.195914716 -0.941740692 2.46840501
0.0567220412 -0.945294261 2.40671849
0.508984685 -0.887642145 2.35825276
1.48806989 -0.328568071 2.26340461
1.15402925 0.317103058 1.72700918
0.132064462 0.267766863 1.88521552
1.22269952 0.570276082 0.968646944
1.21492779 0.475389838 1.12959933
0.607902169 -0.915939152 2.47509789
-1.67961824 -1.21708679 2.96790743
-1.64538598 -1.22617388 2.9750309
1.98305881 0.541211247 1.23146117
2.65064597 -1.24553573 0.691827655
2.87540674 0.846041501 0.589305818
2.23909712 1.12683666 -0.165400445
1.45392835 0.372668326 1.62652791
2.76189733 1.51656151 -1.12500894
3.07851148 1.63224673 -1.72076225
2.5901742 1.35137701 -0.634727895
1.83043659 0.600963354 1.03560519
2.65648437 -1.10957432 0.728928924
2.53492904 1.18775988 -0.398503333
2.01886725 0.69968307 0.875236452
2.592453 1.24049473 -0.50558579
2.65551615 1.27408731 -0.487987131
2.60598016 1.24195635 -0.431555331
2.11992216 0.516421139 1.27819824
2.18511081 0.636605382 1.02186382
2.82601023 1.16511619 -0.241347551
2.44752812 0.72422111 0.829123557
3.32054067 1.44570136 -0.88193363
2.59689522 0.355236828 1.36739719
0.0645677745 -0.970282674 2.49833488
0.902486086 0.30508697 1.69880569
1.18368018 0.418384731 1.40041077
1.18676805 0.423274547 1.4020654
1.12084639 0.385793269 1.34280097
1.60660923 0.528130293 0.985640526
1.13348913 0.389929563 1.36826825
-1.60445178 -1.21847022 2.96665597
4.06100035 -0.731277645 1.51896334
4.0823245 -0.819068074 1.6238277
4.82920551 -0.61654532 1.08274567
4.25165653 -0.938488781 1.4593997
4.05317879 -0.772163987 1.39221787
4.08348656 -0.900223911 1.55603516
4.4043045 -0.371903032 1.47167277
3.8725822 -0.289617032 1.68730593
4.80205536 -0.362401694 1.49984848
4.67753744 -0.19235377 1.48341787
4.44692087 -0.220943809 1.51869035
4.40745735 -0.224735692 1.5434382
4.75173998 -0.166845411 1.49227154
4.24578714 -0.237668812 1.55797756
4.58413219 -0.203712627 1.49284601
4.1655879 -0.236901224 1.64842415
4.62900877 -0.197049916 1.4886657
4.09339952 -0.262435764 1.61489081
3.93781281 -0.275728554 1.68407083
4.72411585 -0.186589867 1.47800326
5.35840368 -1.08366907 0.684966028
3.91116214 -0.495261043 1.73735666
3.89378262 -0.284553468 1.67989922
4.70456982 -0.368396968 1.57823801
3.85093808 -0.362966806 1.72284532
3.986305 -0.485304177 1.68069553
3.85173249 -0.368887305 1.79320073
4.09844208 -1.55105364 1.06732976
4.75855303 -0.383690745 1.49068511
4.65636349 -0.353149503 1.53142011
3.87138414 -0.289450645 1.70903873
4.77901506 -0.350472242 1.45434821
4.68949938 -0.349918514 1.53862166
4.65218687 -0.36243552 1.54018021
4.81261015 -0.360273212 1.55003345
3.86344028 -0.440662473 1.79637051
4.78382444 -0.344210684 1.46401238
0.0942058042 -0.96287632 2.52132225
1.71493542 0.540567994 1.10926354
1.78085852 0.564688563 1.10967767
1.67435813 0.587447286 1.04042602
0.922155678 0.309996247 1.71396685
2.02819896 0.599233985 0.983410418
0.564939857 0.152116165 1.92950797
1.80419338 0.576194525 1.0651474
0.947512269 -1.76361632 1.71783018
0.929915726 -1.62390625 1.74322426
0.944682717 -1.7589004 1.70931315
1.63237131 0.51660943 1.28172004
0.224798337 -0.974984348 2.55339193
1.06880379 0.314221054 1.68576431
1.34212017 0.355115175 1.54591191
1.4681617 0.396795362 1.41764164
1.54412234 0.439038306 1.35104859
1.53842545 0.426192671 1.30940151
1.42869139 0.36496073 1.43904567
1.06658876 0.262309432 1.6222496
1.80709016 0.460517377 1.39107728
1.74000669 0.444303691 1.35784626
1.31990838 0.27415061 1.71775377
0.380460083 -0.935037076 2.54377246
1.793468 0.464694828 1.38627553
0.814117491 -0.852170587 2.25985122
1.38975036 0.28203845 1.80617201
2.35930967 0.495556951 1.33929086
1.8643502 -1.7886821 1.75051439
1.78918087 -1.76029086 1.69630229
1.86861789 -1.47085392 1.83836889
2.77398276 -1.67680073 1.56234932
2.75974441 -1.58997667 1.56894863
2.86509871 -1.63791406 1.60107136
2.81076312 -1.62820971 1.55157948
1.66162932 -0.368255824 2.22915506
2.59364176 1.56637561 -1.22774732
2.37248611 0.48581773 1.37429655
1.71515155 0.614499807 1.08148956
2.85537457 -1.71182513 1.63348341
3.25652122 1.18678355 -0.272161275
3.39063287 1.23410785 -0.380503148
3.59023666 1.43129957 -0.894798338
2.10939121 1.02167583 0.0623770095
2.80062628 -1.63835979 1.56932616
1.34610665 0.272772998 1.71176755
2.70162129 -1.32421589 1.64572787
2.82639766 0.823574722 0.548861682
3.66070771 1.46280813 -0.930562198
5.40373278 0.0756553188 -1.34308112
2.67834306 0.412458092 1.2698915
5.16597033 -0.213821322 -2.71461844
4.11240721 -1.57812595 1.09276509
5.85359764 -0.961019576 0.3302733
3.54382324 0.610734105 0.992820084
5.70071173 0.162337422 0.285980612
5.77396917 -0.106946193 0.465030432
2.10256982 0.783995688 0.654861569
5.31159878 0.972889066 -1.15240002
5.85776949 -1.0609113 0.353192687
5.60118484 0.432042837 0.0163640529
5.72157955 0.0713861436 -0.027600348
5.63889027 0.466175765 0.326813787
2.08945394 0.610913336 0.938249707
5.96256161 -0.922125638 0.6231004
3.54883003 0.611189723 0.975707471
2.79295564 0.907379925 0.323065042
2.82677603 0.927782476 0.38310805
1.98374116 0.541245759 1.24995112
3.27008891 1.1015321 -0.0502415337
3.27311611 1.10073972 -0.0258948505
5.88681412 -1.21192849 0.590842843
2.81018448 0.71652633 0.825334072
2.80345201 0.719163895 0.85611552
3.51140881 -0.986809909 0.328781903
3.5252986 0.85899508 0.599252045
2.80019093 0.722655535 0.86811316
5.77075577 -0.108352281 0.457742393
4.83750677 -1.0358417 0.853321075
5.62312078 0.0601460263 -0.123378441
2.11960721 0.487132847 1.10539579
5.73920822 0.0540960133 0.413386196
5.34551859 -0.0571280085 -1.64222205
3.56776166 -1.09219646 0.33562541
3.55850172 -1.09092116 0.308737248
5.31420374 0.126630008 -1.5115484
3.58004451 -1.091658 0.325774103
5.21833944 1.17478073 -1.59295845
3.34044647 0.999890685 0.173300296
4.16387367 1.34626245 -0.65994221
3.21002579 0.967422664 0.317098022
5.86870289 -1.06200194 0.361744881
5.50538921 -0.306654453 -1.45268595
5.71946096 0.0578729287 0.39613989
5.39427471 0.0743654072 -1.34245813
5.47379208 -0.350419402 -1.15045178
5.5253787 -0.661551535 -1.27578521
5.39136744 0.0663529709 -1.34355986
2.84917355 0.625518799 1.10074604
5.35721779 0.564827561 -1.21702683
5.75145483 0.359563351 0.591212809
5.45279217 -0.135364503 -1.08123088
5.58411455 -0.347608209 -1.11213171
4.39773035 1.24597824 -0.407937437
3.41299748 0.827279806 0.58775425
5.41594696 0.396598399 -1.04183948
5.263834 1.16940272 -1.14507306
5.26928425 1.30807745 -1.08088052
4.32506561 1.16509628 -0.220629141
4.479599 1.10866082 -0.149471387
5.70500755 -0.137543306 -0.0963747203
4.1233778 -1.62705207 1.19873667
2.9874289 0.563321948 0.875688672
5.64789867 0.0922809318 0.0834512636
3.46659517 0.86263752 0.568814397
5.66683626 0.152592137 0.25876525
4.02655649 0.871815681 0.442790598
5.62424088 0.307342589 0.204693154
3.54709888 0.856685638 0.479429901
5.85950661 -1.17851448 0.304741144
5.6811409 -0.197890565 -0.0609055422
5.7082715 0.239333779 0.419791669
5.55712938 0.413463503 -0.0236311276
3.52037764 -0.959572077 0.26717481
4.83791637 -1.44679916 0.682736576
5.61510134 0.403901666 0.138804778
3.54172373 0.866762519 0.509169936
5.50688601 0.190452054 -0.742149293
3.05146861 0.621446192 1.05167747
3.62351823 0.830418289 0.59228617
5.44365644 1.08276737 -0.591472864
3.50703907 0.824227989 0.629300117
5.56931973 -0.0783520341 -0.316450566
3.62345457 0.825106084 0.607464731
3.85325193 0.8821311 0.666086853
5.79271793 -0.127271593 -0.0300037581
4.5638814 1.04769313 0.17709659
5.65398073 -0.378508508 -0.623529851
0.188037559 0.120921455 -0.18704322
1.65617239 -0.166804194 2.25927043
1.91697383 -1.32143223 1.91655338
1.92159677 -1.31119299 1.91139591
1.7625798 -0.100619391 2.24877596
1.67887211 0.521007061 1.28863525
1.69839466 -0.0415418185 2.25851393
1.78633189 -0.337637633 2.21267438
0.522491097 -0.893401742 2.39777207
0.683684051 0.127736524 2.25719213
1.47246814 0.414753824 1.53926969
1.54130852 -0.190299049 2.29598927
1.76482511 -0.136294231 2.23269105
1.14370847 0.306587726 1.79577994
1.77724457 -0.219860807 2.22797275
4.09841681 -1.52821422 0.997090578
4.80165434 -1.18191302 0.802354753
4.16337204 -1.72874403 1.12871742
5.87378168 -0.383068085 0.594614685
4.88319635 -0.628816664 1.00821817
5.43445539 0.713931859 0.804588079
4.08906651 -1.27740622 1.24277151
4.82452011 -0.664886475 1.07692194
4.09728432 -1.30549932 1.32115364
4.10530376 -1.37516737 1.20043182
3.80189228 -1.4283278 1.15951276
3.79846621 -1.37754214 1.06967044
3.79804182 -1.43222356 1.1670208
5.69182348 0.337998599 0.533194482
5.6530304 -0.477314293 0.833596885
4.77685261 -0.630083144 1.0618856
5.94935608 -0.42826286 0.758907616
4.48535252 0.6346187 1.34239507
4.1369071 -0.878944576 1.3751626
4.84856892 -0.8851403 0.942033887
4.82376099 -0.330410808 1.15059662
4.0222311 0.863094449 0.532410264
3.27993822 -1.5676986 1.2369827
3.57504249 0.644329548 1.01866591
3.26957202 -1.55553842 1.2517252
3.50075579 0.609027505 0.994122624
3.50980616 -0.986076832 0.332592458
5.4320364 0.897082031 0.47644183
5.87569714 -1.299963 0.535204768
3.51230168 -0.976739347 0.316687703
5.5724268 0.423604131 -0.00706183026
3.29275608 -1.54844201 1.3005836
3.28820157 -1.56182504 1.3102361
3.29190207 -1.56614625 1.25866234
5.6691246 0.317061335 0.245932207
3.94970036 0.769568801 0.784414828
5.59855366 0.390073121 0.12520504
5.70873499 -0.194490969 -0.0331196114
4.19361687 0.874277115 0.453540087
5.58185959 0.422971249 -0.00302576134
5.61100674 0.264506251 0.0021904672
5.57777214 0.58875984 0.149708897
2.4940145 0.790350139 0.714892387
5.29005527 0.962603629 -0.158588052
4.85120153 -1.0776937 0.855422497
